ply
format ascii 1.0
comment Created by CloudCompare v2.10.2 (Zephyrus)
comment Created 2022/8/26 16:38
obj_info Generated by CloudCompare!
element vertex 963
property float x
property float y
property float z
end_header
-0.781781 -0.184575 0.0534978 
-1.68493 0.38393 -0.361851 
-1.01844 -0.0398219 -0.799105 
0.0720089 -0.241625 0.293792 
-1.54922 -0.227313 0.195904 
-1.40501 -0.137438 -0.367088 
-0.326434 -0.0447766 0.116363 
-0.785855 -0.138464 -0.408228 
-1.18802 -0.174471 -0.0106532 
-0.489933 -0.0834429 -0.209521 
-1.3837 0.215545 -0.261671 
-1.10467 -0.084552 -0.49268 
-1.62815 0.078183 -0.408713 
-0.967257 -0.0340113 -0.173699 
-0.500826 -0.283598 0.0620253 
-1.45239 -0.173822 -0.0595809 
-1.2308 0.00157189 -0.218519 
-0.181021 -0.237825 0.223827 
-0.572403 -0.0423915 0.0236562 
-1.3038 -0.255303 0.205339 
-0.620443 -0.158401 0.227997 
-0.743504 -0.120069 -0.175604 
-1.00818 -0.248382 0.126169 
-1.11313 -0.191303 -0.254506 
-0.903232 -0.0908784 -0.609503 
-0.943295 -0.236479 -0.0973804 
-1.6084 -0.111718 -0.30502 
-1.54077 -0.0706768 -0.512556 
-0.298762 -0.229444 0.0422473 
-0.638285 -0.258173 -0.0770021 
-1.16846 -0.0498044 -0.669522 
-0.747541 0.0142544 -0.0222877 
-1.55711 0.249751 -0.326966 
-1.44263 0.0445045 -0.343516 
-1.30968 -0.160779 -0.178432 
-0.981168 -0.0989175 -0.345349 
-0.407375 -0.0829209 -0.0428055 
-1.22908 -0.119882 -0.364693 
-1.47776 -0.211637 -0.22636 
-1.27298 0.051341 -0.379431 
-0.387596 -0.189233 0.187927 
-0.885526 -0.0825083 -0.0261791 
-1.34348 -0.215842 0.0534531 
-1.12844 -0.0815917 -0.126728 
-0.886411 -0.171764 -0.229252 
-1.16768 -0.238285 0.12997 
-0.0373095 -0.177777 0.207242 
-0.206489 -0.0898029 0.199194 
-1.40156 -0.0540384 -0.235234 
-0.63615 -0.222329 0.0846632 
-0.788164 -0.252666 -0.082108 
-1.03648 -0.161872 -0.00892786 
-0.765294 -0.192778 0.22148 
-0.469711 -0.0814128 0.128988 
-1.24539 -0.0793654 -0.530496 
-0.501731 -0.190735 -0.0607817 
-0.622297 -0.121503 -0.100061 
-1.09765 -0.0409141 -0.256105 
-1.4898 -0.200343 0.0719592 
-0.92088 -0.0946306 -0.473505 
-1.41801 -0.13729 -0.504023 
-1.03873 -0.0723485 -0.634523 
-1.28478 0.126902 -0.237008 
-1.51506 -0.0645667 -0.38319 
-1.43001 -0.257155 0.238116 
-1.36116 -0.226535 -0.283465 
-0.693737 -0.0750426 0.0556875 
-0.919108 -0.184883 0.0583237 
-1.55635 0.375899 -0.30885 
-1.07387 -0.196435 -0.132543 
-0.72537 -0.143938 -0.298081 
-0.405064 -0.260047 -0.0165171 
-0.841503 -0.0474637 -0.14195 
-1.10494 -0.0954681 -0.369352 
-1.62976 -0.077717 -0.426562 
-0.204216 -0.181993 0.1059 
-1.31161 -0.167546 -0.0550003 
-0.39857 -0.297864 0.134373 
-1.53393 0.128074 -0.351381 
-0.589558 -0.120528 0.115886 
-1.34902 0.0406785 -0.1917 
-1.34097 -0.0426788 -0.390737 
-1.30922 -0.189492 -0.409786 
-0.288354 -0.242818 0.165348 
-1.65793 0.273586 -0.373384 
-1.19101 -0.173974 -0.174228 
-1.00096 -0.1915 -0.238308 
-0.505685 -0.19372 0.129243 
-0.347428 -0.1265 0.0404782 
-1.25608 -0.178796 -0.274035 
-0.854745 -0.107432 -0.326759 
-1.01712 -0.0827026 -0.0877392 
-1.4911 -0.111437 -0.264216 
-1.46512 0.289037 -0.286113 
-0.726062 -0.273263 0.00344971 
-1.34364 0.0527437 -0.298074 
-0.964032 -0.0654663 -0.712413 
-1.59248 0.000319809 -0.346444 
-0.311421 -0.106873 0.199378 
-0.701298 -0.0530154 -0.0977616 
-1.11811 -0.0319042 -0.769291 
-1.2293 -0.0266582 -0.318097 
-0.4952 -0.0959961 -0.100968 
-0.714932 -0.225417 -0.149847 
-0.12532 -0.146404 0.161341 
-1.08736 -0.225804 0.0534798 
-1.41097 -0.151577 -0.167976 
-0.874209 -0.217274 -0.0262449 
-0.789376 -0.0860926 0.0222804 
-1.01119 -0.0987388 -0.525389 
-1.56526 0.00210324 -0.443027 
-1.43306 0.140456 -0.306493 
-0.588166 -0.272956 0.00777129 
-1.06569 -0.00957207 -0.167791 
-0.41643 -0.218751 0.0768986 
-0.109073 -0.185639 0.275111 
-0.948733 -0.0945256 -0.251164 
-1.25699 -0.211727 0.101422 
-0.813715 -0.214695 -0.17912 
-1.6258 0.171891 -0.378675 
-0.0264809 -0.249743 0.270839 
-1.38213 -0.2248 0.156868 
-1.49518 -0.0146074 -0.288656 
-0.689994 -0.173581 0.161919 
-0.477202 -0.0613381 0.0352227 
-1.18853 -0.0899541 -0.447453 
-1.2257 -0.0800176 -0.170527 
-0.530763 -0.178613 0.028919 
-0.258516 -0.17806 0.232809 
-1.12712 -0.0768282 -0.583329 
-1.43312 -0.0426992 -0.423704 
-0.661883 -0.162099 -0.191401 
-0.813415 -0.112201 -0.243843 
-0.263626 -0.112138 0.0982351 
-1.39979 -0.140254 -0.267495 
-0.834492 -0.119719 -0.492656 
-1.34456 -0.11541 -0.450431 
-1.55679 -0.176805 -0.266479 
-0.523468 -0.13656 0.198572 
-1.31681 -0.0738207 -0.203996 
-0.418306 -0.166982 0.000935422 
-0.91703 -0.0263579 -0.0976749 
-1.03436 -0.117906 -0.420534 
-0.819926 -0.025005 -0.0578011 
-0.847688 -0.222811 0.100009 
-1.14787 0.0172781 -0.189787 
-1.23678 -0.151824 -0.0987901 
-0.907583 -0.134714 -0.392347 
-0.392127 -0.10039 0.167231 
-1.05199 -0.13684 -0.313181 
-0.641783 -0.0395858 -0.0264687 
-1.00239 -0.226136 0.0431654 
-0.090579 -0.251885 0.214263 
-1.14566 -0.183445 -0.089376 
-0.553725 -0.0941825 -0.264368 
-1.48421 0.208528 -0.303084 
-1.46644 -0.225689 0.149432 
-0.950955 -0.135865 -0.0225533 
-1.31644 -0.157227 -0.331934 
-1.16884 -0.152304 -0.317939 
-1.08771 -0.248669 0.152105 
-0.851008 -0.151772 0.0206398 
-0.554308 -0.109914 -0.165508 
-0.697447 -0.155945 0.0699006 
-1.52286 0.0497067 -0.3746 
-1.42111 -0.208755 0.0272363 
-0.576838 -0.27871 0.0916794 
-0.884472 -0.0843963 -0.202906 
-0.359302 -0.281347 0.0661214 
-0.407275 -0.0373788 0.103246 
-0.955248 -0.223775 -0.180156 
-1.157 -0.0654412 -0.305109 
-1.26458 -0.207932 0.0209974 
-0.174947 -0.151562 0.245105 
-1.06447 -0.0480962 -0.7066 
-0.55891 -0.255873 -0.0703517 
-0.919375 -0.15384 -0.299132 
-1.2282 -0.251777 0.179429 
-0.803258 -0.239593 0.000603938 
-1.19336 -0.221654 0.0552647 
-1.35927 0.141301 -0.273696 
-1.02895 -0.0799955 -0.250327 
-0.866991 -0.242039 -0.114809 
-0.954995 -0.213657 -0.0223121 
-1.47963 -0.129869 -0.345173 
-1.01257 -0.197641 -0.0834456 
-0.542739 -0.0771349 -0.038101 
-1.26946 0.0503568 -0.264646 
-0.476168 -0.26779 0.133956 
-1.09881 -0.204808 -0.0251711 
-1.37952 -0.171023 -0.100189 
-0.483581 -0.262103 -0.0383071 
-0.933736 -0.230343 0.11826 
-1.47724 -0.0832884 -0.472564 
-0.580767 -0.184986 -0.0945635 
-1.59864 0.313234 -0.332464 
-1.27113 -0.098772 -0.437943 
-1.20732 -0.0668098 -0.594519 
-1.06891 -0.138096 -0.0729367 
-0.259573 -0.0509312 0.163583 
-0.349507 -0.232527 0.12149 
-0.124305 -0.22201 0.155364 
-1.18651 -0.190138 -0.245569 
-0.69113 -0.175654 0.24551 
-0.771862 -0.170197 -0.226102 
-0.971262 -0.0734436 -0.587121 
-0.797714 -0.153383 -0.310854 
-1.54525 -0.0620154 -0.314845 
-1.30114 0.00127115 -0.333083 
-0.471063 -0.127135 -0.0298852 
-0.420554 -0.312334 0.032759 
-1.41756 0.00464483 -0.274898 
0.0255256 -0.204228 0.249681 
-1.37736 0.0165263 -0.354796 
-1.33524 -0.170305 -0.246152 
-1.48785 0.00556406 -0.418107 
-0.656727 -0.283628 0.0275583 
-1.1745 -0.0790632 -0.522443 
-0.402241 -0.0801881 0.0456432 
-1.32171 0.00240283 -0.246316 
-0.53104 -0.056184 0.082519 
-0.62498 -0.0665667 0.0689026 
-0.565096 -0.192456 0.0887739 
-0.366849 -0.214813 0.0217785 
-0.893966 -0.103334 -0.541209 
-1.59006 -0.0839461 -0.369125 
-0.708683 -0.257012 -0.07787 
-0.65085 -0.206933 -0.129999 
-1.65494 -0.048286 -0.369458 
-1.31595 -0.233391 0.136571 
-0.850319 -0.107133 -0.421487 
-0.438041 -0.205423 0.141213 
-0.192375 -0.234389 0.155006 
-1.17395 -0.0135259 -0.263162 
-1.26762 -0.0611606 -0.363163 
-1.45644 -0.105459 -0.408924 
-1.31994 -0.115333 -0.386152 
-1.21921 0.068498 -0.222073 
-1.06207 -0.207063 -0.21177 
-1.55837 -0.0654649 -0.444776 
-0.463842 -0.146541 0.167313 
-0.97093 -0.0979584 -0.411796 
-1.6133 -0.0365893 -0.476556 
-1.62642 0.374864 -0.332258 
-1.42593 -0.21582 0.0970631 
-1.37202 -0.184269 -0.0094842 
-1.12241 -0.19891 -0.17675 
-0.272642 -0.211749 0.100751 
-0.763994 -0.0540632 -0.117912 
-1.56629 0.190321 -0.353077 
-0.557072 -0.120947 -0.0966851 
-0.353973 -0.255141 0.182766 
-0.318789 -0.180453 0.20901 
-1.05558 -0.0893312 -0.573133 
-0.988208 -0.146768 -0.299222 
-0.712928 -0.140181 -0.229545 
-0.586206 -0.156752 0.1723 
-0.291046 -0.160317 0.0618913 
-1.12042 -0.109768 -0.431359 
-0.103406 -0.144981 0.224695 
-0.183522 -0.127766 0.139383 
-1.53402 0.315315 -0.303469 
-0.457156 -0.253005 0.0219253 
-1.64707 0.0154154 -0.380871 
-1.16799 -0.117977 -0.38511 
-0.85638 -0.160719 -0.284904 
-0.702058 -0.0281398 -0.0063197 
-1.35972 -0.122949 -0.200677 
-0.701441 -0.240017 0.0522096 
-1.49614 -0.24393 0.228238 
-0.63709 -0.1666 0.115557 
-1.47579 0.0988879 -0.332701 
-1.40879 -0.0918839 -0.456271 
-0.805202 -0.0904505 -0.172418 
-1.40396 0.0672996 -0.287324 
-0.87927 -0.22714 -0.175044 
-0.939609 -0.0711329 -0.0577956 
-1.52095 -0.0108415 -0.351551 
-1.45045 -0.151811 -0.233298 
-1.47373 -0.184822 -0.00118968 
-0.976092 -0.170881 0.029293 
-1.25904 -0.13087 -0.156654 
-1.24471 -0.189979 -0.0499821 
-1.09277 -0.0923815 -0.297738 
-0.0289564 -0.186695 0.273625 
-0.478006 -0.20779 0.0763577 
-1.2409 -0.178154 -0.21048 
-1.14208 -0.213634 0.018405 
-1.58727 0.0954261 -0.364903 
-1.06951 -0.0659039 -0.116399 
-1.338 -0.164868 -0.487577 
-1.18292 -0.133321 -0.127938 
-0.755152 -0.139555 -0.35373 
-0.605875 -0.0718408 -0.0682805 
-0.9501 -0.0690894 -0.652499 
-1.00015 -0.0929063 -0.46595 
-1.37195 -0.255549 0.219636 
-1.4782 -0.119563 -0.521484 
-0.995237 -0.0335976 -0.119266 
-1.10078 -0.0601062 -0.636127 
-0.338685 -0.0521339 0.175063 
-1.30173 -0.169208 -0.118802 
-0.993206 -0.228648 -0.132318 
-1.06213 -0.216581 0.108758 
-0.520812 -0.229236 -0.00362804 
-0.760788 -0.188387 -0.169291 
-1.12971 -0.209085 0.0926295 
-1.45526 -0.0561385 -0.261629 
-1.01755 -0.0383731 -0.209052 
-0.873411 -0.222155 0.0465118 
-1.04199 -0.0958226 -0.366053 
-1.15012 -0.0363121 -0.164947 
-1.55087 -0.120294 -0.291328 
-0.465483 -0.0831822 -0.155289 
-0.952399 -0.0853065 -0.52336 
-0.898052 -0.0432179 -0.159421 
-1.29295 0.0807022 -0.332271 
-1.34065 -0.0195147 -0.194635 
-0.694276 -0.128082 -0.144341 
-0.457006 -0.207093 -0.018745 
-0.944228 -0.163187 -0.247518 
-0.536547 -0.245369 0.118475 
-1.52886 -0.215397 0.142822 
-1.07437 -0.0277731 -0.810273 
-0.762569 -0.0411421 -0.0145823 
-0.0118985 -0.234342 0.217023 
-0.558486 -0.23411 0.0487834 
-1.12678 -0.0417067 -0.709501 
-0.472357 -0.0395201 0.0884909 
-1.61401 0.033589 -0.441521 
-0.656072 -0.111326 0.0872288 
-0.351448 -0.0822901 0.0776842 
-1.58425 0.0453031 -0.393739 
-0.41501 -0.276677 0.0835805 
-0.438764 -0.0854253 -0.0994487 
-1.26842 -0.04592 -0.195851 
-0.883855 -0.104517 -0.255639 
-1.49217 0.151717 -0.318119 
-1.37502 -0.155112 -0.316264 
-1.41893 0.00702769 -0.391784 
-1.10375 -0.150834 -0.295533 
-0.925268 -0.101698 -0.338988 
-1.12664 -0.158238 -0.0402693 
-0.223448 -0.0864794 0.141216 
-0.844989 -0.25342 -0.0584583 
-1.53115 -0.107585 -0.347868 
-0.236398 -0.235105 0.189884 
-0.816284 -0.116522 -0.367196 
-1.01263 -0.0469063 -0.731252 
-1.50611 -0.16409 -0.25039 
-1.43031 0.235017 -0.285006 
-1.00688 -0.0570388 -0.677388 
-0.828314 -0.176256 -0.215594 
-1.4318 -0.162212 -0.115957 
-1.61 0.22125 -0.36391 
-0.835599 -0.061683 -0.0187875 
-0.73826 -0.108803 0.0547359 
-1.51083 -0.0382333 -0.442701 
-1.35667 -0.150576 -0.145991 
-1.07527 -0.192105 -0.0777957 
-0.0749853 -0.188075 0.16848 
-0.351893 -0.267884 0.0131888 
-1.1032 -0.0125539 -0.207218 
-0.996789 -0.125602 -0.0507475 
-0.743079 -0.213971 0.0768858 
-1.02621 -0.215179 -0.00629403 
-0.764704 -0.241914 -0.135165 
-0.539539 -0.124092 0.136168 
-0.403996 -0.247492 0.153301 
-0.746765 -0.0344619 -0.066289 
-0.161567 -0.117867 0.192241 
-1.31598 -0.20022 0.0053929 
-1.36053 -0.212033 0.108956 
-1.05207 -0.0883029 -0.481303 
-1.38575 -0.216371 -0.236676 
-1.19966 -0.0306153 -0.185697 
-0.431412 -0.1005 0.0041645 
-1.32144 0.0914205 -0.254847 
-0.659757 -0.268013 -0.0284416 
-1.65596 0.337602 -0.357318 
-1.42743 -0.141973 -0.314533 
-0.0928028 -0.238652 0.266002 
-1.12839 -0.132625 -0.109247 
-1.04028 -0.182962 0.0407184 
-0.251946 -0.126428 0.220601 
-0.987234 -0.205311 0.0896702 
-1.18703 -0.152643 -0.0769599 
-0.63063 -0.0335705 0.0274982 
-1.05815 -0.0384117 -0.760778 
-0.918349 -0.221588 0.0156368 
-1.0285 -0.219683 -0.17057 
-1.24747 -0.157958 -0.332726 
-0.726982 -0.0879669 -0.133993 
-1.09895 -0.182554 0.0270951 
-1.03776 -0.166559 -0.265095 
-0.35288 -0.142774 0.198236 
-0.334858 -0.195664 0.0587088 
-0.870279 -0.0367448 -0.0691004 
-1.22003 -0.236181 0.130603 
-0.534129 -0.273722 0.0192772 
-0.763462 -0.264721 -0.0324845 
-0.155989 -0.184334 0.125638 
-0.524221 -0.134724 -0.0593753 
-1.50761 0.272162 -0.31277 
-1.18642 0.0303336 -0.231989 
-0.899429 -0.14815 0.00441209 
-0.152638 -0.211049 0.264043 
-1.20019 -0.0739007 -0.332595 
-0.761418 -0.232168 0.028393 
-0.203871 -0.199435 0.249303 
-1.22953 -0.0926251 -0.478354 
-0.711074 -0.175854 -0.16145 
-0.956523 -0.135116 -0.371812 
-1.16093 -0.0639031 -0.621236 
-1.40074 -0.175011 -0.0503312 
-1.38003 -0.100166 -0.415208 
-0.651128 -0.156266 -0.136534 
-0.391061 -0.0514318 0.154271 
-1.27794 -0.230044 0.169626 
-0.831537 -0.187414 0.0620586 
-1.50093 -0.0862354 -0.426925 
-0.764145 -0.122409 -0.239694 
-0.516092 -0.063586 0.00200334 
-1.22774 -0.0950076 -0.412437 
-1.32155 0.160074 -0.24543 
-0.654058 -0.0544402 -0.0727146 
-0.7953 -0.21644 0.0888796 
-0.97175 -0.0675367 -0.21584 
-1.40086 -0.146289 -0.216924 
-1.49395 0.0357537 -0.335733 
-0.919479 -0.207192 -0.21102 
-0.734465 -0.0622885 0.0291437 
-0.671501 -0.0898329 -0.113176 
0.0152883 -0.234025 0.293605 
-0.577915 -0.0712226 0.0854331 
-0.893362 -0.145593 -0.346007 
-1.44534 -0.238043 0.191845 
-1.00533 -0.101254 -0.293122 
-1.43872 -0.101225 -0.255667 
-0.514601 -0.288392 0.109452 
-1.59707 0.268052 -0.350933 
-0.596172 -0.241662 -0.099516 
-0.536294 -0.094702 -0.214509 
-1.50441 -0.117021 -0.389107 
-1.36993 -0.00342664 -0.24769 
-0.808747 -0.165376 -0.259226 
-0.795962 -0.143882 0.0298976 
-1.27665 0.010007 -0.289347 
-0.363711 -0.23366 0.0738357 
-1.3537 -0.139601 -0.362628 
-1.61136 -0.0458022 -0.347462 
-0.645965 -0.159696 0.178641 
-0.134617 -0.24693 0.195795 
-0.922855 -0.217188 -0.058857 
-0.542274 -0.211759 -0.0829687 
-1.39452 0.114658 -0.294682 
-1.41201 0.179806 -0.289213 
-0.955182 -0.101647 -0.301051 
-1.23464 0.00316493 -0.266599 
-0.924184 -0.232915 -0.14492 
-1.36361 -0.0787378 -0.219013 
-0.511154 -0.0949305 -0.148951 
-1.08144 -0.0912404 -0.41148 
-1.29575 -0.200135 0.0566084 
-1.07354 -0.0933248 -0.528507 
-1.288 -0.161239 -0.370216 
-0.5959 -0.263735 -0.0415962 
-1.15009 -0.0979473 -0.474333 
-0.694837 -0.0356509 -0.0524656 
-1.30393 -0.171761 -0.282645 
-1.18034 -0.0780855 -0.155639 
-0.0683077 -0.163334 0.249839 
-1.0627 -0.0320135 -0.224389 
-0.456534 -0.19795 0.0277971 
-1.155 -0.19812 -0.211017 
-1.29388 -0.118004 -0.189467 
-0.548473 -0.170414 0.129503 
-1.38722 -0.200889 0.0638288 
-0.992536 -0.0649913 -0.630399 
-1.58958 0.144207 -0.367158 
-1.16527 -0.195301 -0.0459602 
-0.504792 -0.171341 -0.0181727 
-1.53869 0.0171156 -0.404885 
-1.59475 -0.158264 -0.287291 
-0.815063 -0.238899 -0.139028 
-0.81434 -0.129511 -0.45237 
-0.893954 -0.104986 -0.302456 
-1.37558 -0.134378 -0.479113 
-1.3901 -0.0556399 -0.41064 
-0.419142 -0.153388 0.175682 
-1.07613 -0.1282 -0.352126 
-1.13276 -0.2492 0.163216 
-1.14593 -0.177221 -0.283948 
-0.33956 -0.211633 0.177939 
-1.27395 -0.112853 -0.383109 
-0.442734 -0.295835 0.115256 
-0.904503 -0.100696 -0.430796 
-0.309333 -0.117117 0.0647837 
-1.08158 -0.109965 -0.109533 
-0.579856 -0.0547545 -0.025513 
-0.269237 -0.0698162 0.204411 
-1.52017 0.186886 -0.323369 
-0.88144 -0.115796 -0.478147 
-0.848968 -0.0775696 -0.175816 
-0.636484 -0.266471 0.0711224 
-1.51888 0.0869523 -0.335269 
-0.537238 -0.264143 -0.027973 
-1.556 -0.0857733 -0.404477 
-0.515106 -0.245524 -0.0700144 
-1.51138 -0.0898172 -0.297716 
-0.774641 -0.12306 -0.285611 
-0.890053 -0.245109 -0.0733637 
-0.932546 -0.0595578 -0.194665 
-0.235967 -0.14761 0.0910439 
-0.278879 -0.0586398 0.12346 
-0.255741 -0.224216 0.0612171 
-1.20806 -0.170771 -0.305663 
-0.318827 -0.230447 0.0876606 
-1.30224 -0.0334187 -0.370625 
-1.45247 0.0148889 -0.300492 
-0.844368 -0.217693 0.00688102 
-1.43012 -0.187276 -0.0124297 
-0.719217 -0.184688 0.194564 
-0.831111 -0.109608 -0.284502 
-1.04194 -0.203078 -0.0486047 
-0.862897 -0.107965 -0.378288 
-0.441472 -0.0616453 0.062079 
-0.578942 -0.289558 0.0485182 
-1.48251 0.028418 -0.378863 
-1.34234 0.0178055 -0.325708 
-0.963562 -0.11864 -0.449426 
-0.999034 -0.208702 -0.04078 
-1.43125 -0.187879 -0.217662 
-0.306766 -0.250713 0.204536 
-1.0946 -0.0406172 -0.142384 
-0.958528 -0.0416498 -0.0946582 
-1.37577 -0.0109127 -0.388568 
-0.835352 -0.147951 -0.341964 
-0.74387 -0.157198 -0.257795 
-0.386129 -0.140943 0.0159911 
-0.054995 -0.234692 0.19456 
-0.408457 -0.208704 0.0346437 
-0.461183 -0.266962 0.0718052 
-1.44263 -0.102189 -0.491117 
-1.23639 -0.178044 -0.00830057 
-0.434131 -0.0976332 0.153665 
-1.27796 0.0399471 -0.331678 
-0.987905 -0.0513997 -0.771271 
-1.16972 -0.0691322 -0.572807 
-0.929819 -0.0768701 -0.575051 
-1.08458 -0.164104 -0.0173051 
-1.23081 -0.199578 0.055411 
-0.679788 -0.195607 0.0696714 
-0.401633 -0.264566 0.0263408 
-1.3447 -0.231025 0.177715 
-1.36107 0.0918563 -0.272279 
-1.27871 -0.195102 -0.0249103 
-1.23972 -0.167426 -0.138839 
-0.703628 -0.266656 -0.0353324 
-1.30789 0.0435951 -0.245202 
-0.507921 -0.246332 0.0386398 
-1.13333 -0.0863298 -0.534625 
-0.282258 -0.20582 0.210014 
-0.864308 -0.196375 -0.201114 
-1.18945 -0.034228 -0.3009 
-1.57365 -0.0924509 -0.324671 
-1.01758 -0.0837272 -0.591894 
-0.896804 -0.218945 0.101316 
-0.233626 -0.217244 0.118 
-1.55724 -0.0230334 -0.331148 
-1.03262 -0.0263978 -0.139897 
-1.35353 -0.174423 -0.0482395 
-0.605481 -0.195068 0.103748 
-0.961052 -0.222001 0.0211356 
-0.961896 -0.20651 -0.0717317 
-0.835979 -0.114545 0.00702864 
-0.875067 -0.0332601 -0.111656 
-0.874764 -0.175937 0.0463834 
-1.15808 -0.0905587 -0.33959 
-1.29649 -0.169641 -0.228885 
-1.25896 0.0328387 -0.224634 
-0.525234 -0.0880219 0.118667 
-1.03401 -0.211931 -0.125842 
-1.21688 -0.12564 -0.151405 
-1.20608 -0.0737027 -0.549775 
-1.37354 0.0267001 -0.27654 
0.0342281 -0.245277 0.257443 
-1.20214 -0.209811 0.0960418 
-1.30292 -0.0806085 -0.402729 
-0.35496 -0.167399 0.0321958 
-1.44555 0.0582273 -0.303103 
-1.48614 -0.208581 0.113053 
-0.920572 -0.226524 0.0614702 
-1.55707 0.0215368 -0.356515 
-1.11615 -0.128191 -0.339798 
-0.207037 -0.128397 0.230051 
-1.10965 -0.238326 0.118926 
-1.50868 -0.226957 0.177203 
-0.737517 -0.181665 0.0503073 
-0.407867 -0.244131 0.111126 
-1.01537 -0.126598 -0.384985 
-1.00023 -0.137601 -0.338265 
-1.32042 -0.210092 0.0970596 
-1.06588 -0.215963 0.00491919 
-0.973201 -0.108379 -0.493865 
-0.996775 -0.214799 -0.203371 
-0.0454566 -0.253062 0.233976 
-0.805095 -0.043504 -0.120601 
-1.36379 0.00863314 -0.169141 
-1.26718 0.0794353 -0.234393 
-0.298273 -0.236642 0.125518 
-1.19085 -0.20989 0.0109445 
-1.0717 -0.0621687 -0.66483 
-1.52111 -0.0637615 -0.473549 
-1.4227 -0.229973 0.155674 
-0.561312 -0.14442 0.213607 
-1.4622 -0.126974 -0.296844 
-1.08449 -0.068123 -0.593851 
-1.40093 -0.101414 -0.238996 
-0.444197 -0.250649 -0.037476 
-0.96392 -0.229557 0.0650409 
-1.49369 -0.055156 -0.281758 
-1.34118 -0.000547975 -0.363389 
-0.658467 -0.246613 -0.111383 
-0.417467 -0.22015 -0.0183641 
-1.11772 -0.194165 -0.0602876 
-0.69674 -0.141552 -0.184857 
-1.0775 -0.108318 -0.455455 
-0.450663 -0.220155 0.103734 
-1.52295 0.229449 -0.315975 
-1.13941 -0.177053 -0.128682 
-0.591968 -0.160278 0.124558 
-0.0730615 -0.158203 0.199849 
-1.59759 -0.0689321 -0.453925 
-0.220947 -0.121542 0.118536 
-1.18845 -0.253127 0.17783 
-1.45616 -0.193755 0.0403512 
-0.473348 -0.10829 -0.0682212 
-0.936403 -0.0298594 -0.133639 
-0.731824 -0.183752 0.243668 
-1.30989 -0.194674 -0.367766 
-0.071756 -0.199302 0.283282 
-0.488482 -0.120768 0.148297 
-1.46912 0.245389 -0.301175 
-0.534425 -0.0472753 0.0383469 
-1.20213 -0.177248 -0.106415 
-1.13468 -0.0272525 -0.259703 
-0.489307 -0.231794 0.122097 
-1.07312 -0.1868 -0.254808 
-0.916226 -0.0897665 -0.228043 
-0.370355 -0.216151 0.153399 
-0.299109 -0.0494599 0.183096 
-0.242175 -0.213695 0.223917 
-1.60557 0.00302828 -0.471784 
-0.961418 -0.188528 0.0644534 
-0.679594 -0.177624 0.201283 
-0.435164 -0.272375 0.14671 
-0.997073 -0.1556 -0.0124718 
-0.460004 -0.165323 -0.0216139 
-1.40926 -0.238472 0.209934 
-1.65623 0.107316 -0.405214 
-0.470022 -0.18232 0.149546 
-0.908107 -0.0491165 -0.066093 
-0.289426 -0.138922 0.214841 
-0.667821 -0.0351511 0.0140695 
-0.504748 -0.0899447 -0.0339068 
-1.13693 -0.177 0.00475261 
-1.34833 -0.0794307 -0.427016 
-0.358737 -0.0342334 0.1398 
-1.02612 -0.0981682 -0.326154 
-0.328174 -0.244516 0.152958 
-1.63283 -0.0113156 -0.355524 
-0.615675 -0.095301 0.094994 
-1.2839 -0.180886 -0.0788088 
-1.49643 0.317078 -0.29094 
-1.26188 -0.0951965 -0.182928 
-1.21208 -0.163879 -0.0491666 
-0.51612 -0.0862617 -0.247247 
-0.627496 -0.273192 0.0025655 
-0.00622475 -0.188014 0.22892 
-0.513695 -0.195838 0.0663356 
-0.485503 -0.271551 7.31796e-05 
-0.814841 -0.216344 0.0413386 
-1.61297 0.112239 -0.389539 
-1.1384 -0.0942503 -0.396131 
-0.990839 -0.0892081 -0.253136 
-0.994235 -0.15688 -0.261679 
-1.11994 -0.055316 -0.672541 
-0.976875 -0.0953841 -0.551793 
-0.730113 -0.171551 -0.195684 
-1.46964 -0.0656818 -0.437834 
-0.976018 -0.0825923 -0.068432 
-0.143485 -0.17119 0.262823 
-1.14887 -0.113139 -0.137706 
-1.0642 -0.0668855 -0.261032 
-0.938422 -0.100699 -0.377962 
-0.344121 -0.0921827 0.185672 
-1.36195 -0.144223 -0.233774 
-1.56797 0.0602118 -0.362391 
-0.949957 -0.142567 -0.334834 
-0.394338 -0.0875176 0.00317177 
-0.799669 -0.119479 -0.329312 
-0.789208 -0.0328628 -0.0791719 
-1.09499 -0.0842626 -0.560623 
-0.800178 -0.11125 -0.204436 
-0.607342 -0.247561 0.091176 
-1.27787 -0.233336 0.128955 
-0.937082 -0.127162 -0.416092 
-1.26769 -0.0871315 -0.481883 
-0.118119 -0.185986 0.144271 
-1.33468 -0.194389 -0.276363 
-0.477155 -0.0782874 0.000672417 
-1.35885 -0.162641 -0.276167 
-0.361474 -0.0449586 0.100833 
-1.09493 -0.0413963 -0.730941 
-1.6223 -0.0732801 -0.387889 
-0.85945 -0.106261 -0.525428 
-1.31309 0.0191559 -0.295825 
-0.53847 -0.28591 0.0704886 
-1.34347 0.0523158 -0.259167 
-0.624255 -0.131747 0.103831 
-0.534671 -0.115986 -0.128032 
-0.900808 -0.104119 -0.369807 
-0.381472 -0.290028 0.095704 
-0.703994 -0.117583 0.0692197 
-1.40759 0.0299317 -0.335422 
-0.900424 -0.163508 -0.263799 
-1.18615 0.00167598 -0.19987 
-0.48716 -0.12571 0.193473 
-0.722696 -0.248756 -0.112417 
-1.56011 0.287437 -0.320653 
-1.36661 -0.194705 0.031938 
-1.05054 -0.229588 0.0634327 
-1.31432 -0.111561 -0.427386 
-1.19409 -0.0920164 -0.492584 
-0.999004 -0.119249 -0.435196 
-1.44035 0.0992521 -0.31807 
-0.144684 -0.243742 0.234246 
-1.4663 0.174719 -0.302016 
-0.259417 -0.176043 0.0804738 
-0.494105 -0.225563 -0.0299952 
-0.53271 -0.205378 0.103811 
-0.685074 -0.197179 -0.144267 
-1.16137 -0.19409 0.0449701 
-1.26321 -0.254642 0.194506 
-0.925345 -0.109875 -0.0337631 
-1.49196 0.0732479 -0.357279 
-0.619261 -0.158213 -0.106158 
-1.44965 -0.00236843 -0.412832 
-0.78001 -0.224144 -0.166132 
-1.52681 2.35289e-05 -0.436455 
-0.2266 -0.0683662 0.175741 
-1.22558 0.0414995 -0.247043 
-1.27605 -0.0151767 -0.217456 
-0.784933 -0.0709759 -0.143942 
-1.61653 -0.0920095 -0.33687 
-0.935522 -0.0732618 -0.617986 
-0.219316 -0.165995 0.244803 
-1.51498 0.00506067 -0.31344 
-1.37697 0.172488 -0.262971 
-0.509152 -0.158838 0.143675 
-0.883565 -0.0987179 -0.577931 
-1.58743 0.367296 -0.328782 
-1.42292 -0.0255269 -0.25336 
-0.673616 -0.170987 0.128542 
-1.53391 -0.144957 -0.266586 
-0.310929 -0.0924218 0.0924348 
-0.606137 -0.041844 -4.47016e-05 
-1.61977 0.0354883 -0.39809 
-1.00629 -0.185583 0.0552197 
-0.890514 -0.090781 -0.506003 
-0.44971 -0.0514499 0.119439 
-0.65925 -0.0612017 0.055949 
-1.5006 -0.0273382 -0.405948 
-0.252816 -0.230015 0.14696 
-0.785844 -0.0256749 -0.0428674 
-0.670959 -0.262569 0.0555577 
-0.933782 -0.159736 0.0124509 
-1.26963 0.0160324 -0.359529 
-0.596884 -0.0495437 0.0514149 
-1.2681 -0.0162856 -0.334266 
-0.945878 -0.206603 0.0921261 
-1.24019 -0.0854139 -0.379302 
-1.31041 -0.0295056 -0.215538 
-0.387501 -0.133201 0.184867 
-0.561442 -0.0457651 0.0645155 
-1.01256 -0.171304 0.0197549 
-1.56323 -0.0323487 -0.459118 
-1.26456 -0.173785 -0.109964 
-1.01035 -0.233439 0.0915418 
-0.872099 -0.13313 -0.406361 
-0.549939 -0.247478 0.0843256 
-1.41923 -0.104975 -0.409053 
-0.441544 -0.0876163 -0.0566413 
-1.64652 0.238691 -0.37541 
-1.26858 -0.159753 -0.195638 
-0.195782 -0.0937841 0.164201 
-0.761416 -0.261007 0.00586927 
-1.05754 -0.0934801 -0.285719 
-1.62812 0.28652 -0.354247 
-0.741632 -0.145319 0.053629 
-0.705456 -0.149339 -0.263682 
-1.16341 -0.126339 -0.343636 
-1.32603 -0.149226 -0.208898 
-0.588843 -0.136805 -0.0883702 
-1.26395 -0.219884 0.065559 
-0.139807 -0.138941 0.227616 
-1.20981 0.0303741 -0.204516 
-1.05682 -0.245796 0.128539 
-0.578469 -0.0949969 -0.070863 
-0.407174 -0.201698 0.160064 
-0.9751 -0.23588 0.118865 
-0.333182 -0.239992 0.0271146 
-1.55902 0.341882 -0.32137 
-1.13095 -0.0896315 -0.307388 
-0.158265 -0.221828 0.14261 
-1.52911 -0.0557021 -0.346458 
-1.1909 -0.0557409 -0.638392 
-0.902684 -0.241001 -0.112588 
-0.534571 -0.190373 -0.00517209 
-0.433522 -0.265851 0.0475647 
-1.30981 0.0609759 -0.277002 
-0.649227 -0.183284 0.0867936 
-1.44386 -0.128041 -0.383473 
-1.44067 0.199367 -0.297922 
-1.11001 -0.0127866 -0.172468 
-0.446277 -0.114806 0.182623 
-1.01501 -0.0942229 -0.40162 
-1.33172 -0.164278 -0.0843584 
-1.38305 0.0580568 -0.314425 
-1.19682 -0.0984771 -0.375005 
-1.37198 -0.150975 -0.182864 
-1.20525 -0.134009 -0.342564 
-0.880186 -0.219582 0.00845304 
-1.46394 -0.248742 0.243725 
-0.384735 -0.0705861 0.07757 
0.0451843 -0.218896 0.284313 
-1.17351 -0.107724 -0.421059 
-0.963536 -0.113283 -0.0480044 
-0.654274 -0.166877 0.235785 
-1.11979 -0.201291 -0.21277 
-1.5354 0.0946034 -0.366599 
-1.08815 -0.119032 -0.39117 
-0.683254 -0.279496 -0.00446148 
-1.15538 -0.227209 0.0776073 
-1.40764 0.145227 -0.282056 
-1.2067 -0.186567 -0.211516 
-0.428536 -0.134283 -0.00585766 
-1.41714 0.0328132 -0.295691 
-0.56348 -0.219408 0.112939 
-0.726554 -0.0296205 -0.0319073 
-0.845476 -0.237628 -0.0232249 
-0.123349 -0.137811 0.196202 
-0.388742 -0.236663 0.00433456 
-0.0185592 -0.222991 0.291995 
-0.431549 -0.274268 0.0111467 
-0.620576 -0.151997 0.143611 
-0.844656 -0.0967824 -0.205603 
-1.17066 0.0421336 -0.200391 
-0.252875 -0.08722 0.122495 
-1.57883 -0.0568952 -0.345333 
-1.42253 0.0709914 -0.328147 
-1.44136 -0.0742668 -0.469329 
-0.730123 -0.248197 0.0345338 
-1.07139 -0.197541 0.0662648 
-1.06149 -0.152804 -0.0403859 
-1.37627 -0.242005 0.187111 
-0.987606 -0.21811 -0.0976825 
-0.9484 -0.192812 -0.228678 
-0.0290924 -0.209374 0.195576 
-1.33828 -0.250974 0.210983 
-0.559558 -0.191306 0.054759 
-1.24441 -0.224311 0.151143 
-1.10491 -0.189308 -0.144823 
-0.182804 -0.206115 0.122711 
-0.684571 -0.236811 -0.13206 
-1.23979 -0.0271302 -0.198286 
-0.627847 -0.230326 -0.116784 
-0.770618 -0.0975841 -0.160796 
-0.952389 -0.15238 -0.290081 
-1.36904 -0.0315364 -0.227415 
-1.02514 -0.0555559 -0.106914 
-1.15316 -0.150691 -0.0738194 
-0.874247 -0.101115 -0.448639 
-0.0912989 -0.219629 0.165993 
-0.989932 -0.0972551 -0.378911 
-1.38799 -0.162532 -0.132238 
-0.548886 -0.111267 -0.0633039 
-0.678407 -0.157862 -0.2212 
-0.758179 -0.25034 -0.0984032 
-1.122 -0.192879 0.0503921 
-1.48705 -0.0912577 -0.504094 
-1.55563 -0.0994932 -0.370395 
-0.747935 -0.124877 -0.208562 
-1.37542 -0.101637 -0.455725 
-0.856783 -0.168645 -0.244432 
-0.17578 -0.182656 0.260677 
-1.32839 0.0119254 -0.213978 
-0.55662 -0.13644 0.16281 
-0.497468 -0.190988 0.036685 
-0.509113 -0.0358577 0.065197 
-0.956763 -0.233711 -0.135023 
-0.495501 -0.147152 -0.0458588 
-1.00251 -0.0211459 -0.155544 
-1.45759 -0.00943013 -0.277657 
-0.509476 -0.104996 -0.0668479 
-1.02118 -0.115559 -0.0728419 
-1.34816 -0.158091 -0.113726 
-1.65138 0.380823 -0.354318 
-1.54898 0.219618 -0.340595 
-0.867488 -0.151675 -0.323567 
-1.22451 -0.206966 0.00888486 
-1.31206 -0.241935 0.174371 
-1.02022 -0.0909179 -0.558934 
-0.805105 -0.0633221 -0.0034122 
-1.36189 -0.115686 -0.39032 
-1.51716 -0.122244 -0.289052 
-0.44767 -0.209672 0.0604774 
-0.735903 -0.0447845 -0.0958265 
-1.09586 -0.0988991 -0.337121 
-1.25866 -0.136781 -0.356733 
-0.879343 -0.194403 0.075089 
-1.39227 -0.218745 0.0991228 
-0.779147 -0.12933 -0.376723 
-0.0936154 -0.159508 0.172704 
-1.0878 -0.234706 0.0937359 
-1.22985 -0.185672 -0.25271 
-1.21466 -0.0127831 -0.29102 
-1.50643 -0.109824 -0.324044 
-0.862109 -0.0995607 -0.00927239 
-1.52988 -0.236127 0.222685 
-1.14097 -0.0810736 -0.501353 
-1.62378 0.345472 -0.348168 
-0.745531 -0.217132 -0.16281 
-0.195017 -0.24158 0.187965 
-0.270191 -0.137856 0.0767762 
-0.507407 -0.261881 0.0902048 
-0.148071 -0.153497 0.137612 
-0.9181 -0.0849399 -0.527024 
-1.47831 -0.179809 -0.235723 
-0.29671 -0.0412932 0.14578 
-1.52943 -0.190267 -0.252659 
-0.547755 -0.206935 0.0212267 
-0.821733 -0.0331103 -0.090267 
-1.02331 -0.10701 -0.485719 
-0.50518 -0.0960378 -0.182118 
-0.824523 -0.16755 0.0358254 
-0.572892 -0.223781 0.0789787 
-1.22955 -0.0613498 -0.341918 
-1.03305 -0.0577849 -0.701341 
-1.6148 0.0132245 -0.372603 
-1.12885 -0.0136058 -0.229892 
-1.57662 0.0298037 -0.42242 
-1.11361 -0.181672 -0.108205 
-1.08233 -0.206785 -0.162846 
-0.824587 -0.132969 -0.420904 
-0.236034 -0.0909708 0.214806 
-1.10893 -0.216253 0.0191852 
-0.691562 -0.271678 0.0312574 
-1.53831 0.0606471 -0.346964 
-0.307173 -0.217055 0.182264 
-1.20542 0.00244257 -0.250489 
-0.060868 -0.247975 0.264889 
