ply
format ascii 1.0
comment Created by CloudCompare v2.11.1 (Anoia)
comment Created 2022/8/26 下午2:30
obj_info Generated by CloudCompare!
element vertex 1523
property float x
property float y
property float z
end_header
0.076 -0.235 0.118 
-0.98 0.192 0 
-0.483 -0.288 -0.581 
0.957 -0.203 0.005 
-0.568 -0.278 0.559 
-0.661 -0.306 -0.021 
0.5 -0.066 -0.032 
-0.109 -0.29 -0.304 
-0.322 -0.256 0.22 
0.231 -0.181 -0.253 
-0.645 0.062 0.001 
-0.44 -0.269 -0.263 
-0.908 -0.114 -0.009 
-0.199 -0.145 -0.04 
0.349 -0.318 0.032 
-0.583 -0.277 0.281 
-0.462 -0.131 0.018 
0.698 -0.225 0.042 
0.239 -0.094 -0.018 
-0.336 -0.293 0.475 
0.287 -0.165 0.206 
0.016 -0.22 -0.115 
-0.096 -0.291 0.285 
-0.344 -0.322 -0.026 
-0.299 -0.292 -0.447 
-0.123 -0.325 0.056 
-0.827 -0.276 0.111 
-0.849 -0.278 -0.11 
0.52 -0.261 -0.076 
0.167 -0.329 -0.043 
-0.57 -0.276 -0.403 
0.054 -0.056 0 
-0.833 0.074 0.005 
-0.709 -0.125 -0.018 
-0.499 -0.284 0.115 
-0.269 -0.246 -0.177 
0.37 -0.141 -0.136 
-0.501 -0.281 -0.092 
-0.665 -0.351 0.148 
-0.568 -0.119 -0.119 
0.489 -0.194 0.083 
-0.062 -0.157 0.069 
-0.435 -0.289 0.347 
-0.323 -0.188 0.075 
-0.129 -0.288 -0.097 
-0.242 -0.287 0.35 
0.816 -0.164 -0.041 
0.647 -0.087 0.003 
-0.618 -0.196 0.081 
0.226 -0.259 0.095 
0.027 -0.331 0.011 
-0.184 -0.237 0.159 
0.156 -0.206 0.264 
0.378 -0.105 0.043 
-0.584 -0.278 -0.242 
0.29 -0.254 -0.095 
0.156 -0.2 -0.095 
-0.349 -0.175 -0.061 
-0.564 -0.276 0.419 
-0.263 -0.267 -0.317 
-0.725 -0.336 -0.139 
-0.435 -0.285 -0.419 
-0.534 -0.015 0 
-0.777 -0.243 -0.005 
-0.439 -0.293 0.555 
-0.578 -0.373 0.053 
0.144 -0.124 0.065 
-0.048 -0.24 0.177 
-0.841 0.201 -0.002 
-0.261 -0.299 0.069 
-0.011 -0.269 -0.228 
0.404 -0.308 -0.081 
-0.07 -0.146 -0.059 
-0.392 -0.253 -0.15 
-0.897 -0.27 0.004 
0.625 -0.197 -0.065 
-0.453 -0.264 0.228 
0.472 -0.312 0.059 
-0.806 -0.049 -0.004 
0.268 -0.151 0.086 
-0.565 -0.092 0.082 
-0.623 -0.216 -0.085 
-0.583 -0.362 -0.088 
0.578 -0.247 0.033 
-0.946 0.083 -0.001 
-0.387 -0.291 0.074 
-0.235 -0.314 -0.056 
0.359 -0.216 0.078 
0.462 -0.163 -0.077 
-0.484 -0.32 0.011 
-0.145 -0.245 -0.209 
-0.206 -0.176 0.066 
-0.704 -0.262 0.101 
-0.738 0.125 -0.002 
0.119 -0.33 0.067 
-0.602 -0.103 -0.018 
-0.397 -0.292 -0.52 
-0.842 -0.175 0.047 
0.553 -0.108 0.048 
0.076 -0.136 -0.074 
-0.564 -0.278 -0.516 
-0.495 -0.18 -0.067 
0.269 -0.17 -0.151 
0.065 -0.316 -0.084 
0.714 -0.147 -0.053 
-0.199 -0.288 0.247 
-0.589 -0.277 0.163 
-0.035 -0.288 0.089 
0.045 -0.146 0.075 
-0.365 -0.286 -0.327 
-0.854 -0.193 -0.051 
-0.698 -0.023 -0.006 
0.247 -0.323 0.016 
-0.29 -0.124 0 
0.424 -0.248 0 
0.777 -0.16 0.05 
-0.204 -0.22 -0.106 
-0.338 -0.271 0.355 
-0.038 -0.316 -0.073 
-0.906 -0.016 0 
0.859 -0.22 0.025 
-0.43 -0.277 0.457 
-0.729 -0.173 0.063 
0.2 -0.197 0.177 
0.333 -0.106 -0.042 
-0.499 -0.268 -0.188 
-0.429 -0.2 0.074 
0.296 -0.224 -0.005 
0.623 -0.168 0.07 
-0.496 -0.282 -0.337 
-0.72 -0.227 -0.078 
0.09 -0.261 -0.154 
-0.075 -0.23 -0.15 
0.559 -0.133 -0.061 
-0.618 -0.287 0.067 
-0.188 -0.292 -0.364 
-0.64 -0.3 -0.124 
-0.757 -0.329 0.137 
0.362 -0.146 0.137 
-0.526 -0.205 0.079 
0.387 -0.214 -0.077 
-0.125 -0.119 0.007 
-0.344 -0.283 -0.22 
-0.021 -0.105 0.004 
0.038 -0.265 0.193 
-0.377 -0.106 0.008 
-0.403 -0.255 0.156 
-0.215 -0.288 -0.242 
0.466 -0.112 0.05 
-0.317 -0.279 -0.113 
0.156 -0.105 -0.036 
-0.125 -0.287 0.204 
0.779 -0.237 0 
-0.312 -0.28 0.134 
0.153 -0.206 -0.275 
-0.752 0.042 0.005 
-0.51 -0.283 0.484 
-0.114 -0.211 0.108 
-0.564 -0.314 -0.021 
-0.424 -0.3 -0.068 
-0.159 -0.289 0.34 
-0.004 -0.213 0.11 
0.192 -0.2 -0.183 
0.156 -0.2 0.094 
-0.795 -0.13 -0.015 
-0.517 -0.291 0.353 
0.29 -0.31 0.088 
-0.128 -0.197 -0.09 
0.48 -0.309 -0.021 
0.42 -0.065 -0.013 
-0.167 -0.331 -0.016 
-0.419 -0.212 -0.077 
-0.376 -0.285 0.285 
0.701 -0.136 0.043 
-0.489 -0.278 -0.478 
0.242 -0.322 -0.069 
-0.188 -0.287 -0.15 
-0.277 -0.292 0.421 
0.043 -0.301 0.089 
-0.296 -0.288 0.29 
-0.618 -0.012 -0.006 
-0.279 -0.209 -0.076 
-0.059 -0.331 0.011 
-0.108 -0.287 0.124 
-0.722 -0.297 0.027 
-0.186 -0.287 0.089 
0.247 -0.14 -0.079 
-0.521 -0.095 -0.017 
0.397 -0.286 0.084 
-0.242 -0.285 0.177 
-0.532 -0.28 0.215 
0.324 -0.318 -0.069 
-0.033 -0.272 0.245 
-0.774 -0.279 -0.097 
0.204 -0.259 -0.095 
-0.881 0.133 0.005 
-0.57 -0.278 -0.145 
-0.575 -0.278 -0.317 
-0.241 -0.229 0.11 
0.58 -0.059 -0.015 
0.504 -0.249 0.016 
0.722 -0.222 -0.045 
-0.408 -0.322 0.011 
0.231 -0.181 0.253 
-0.023 -0.281 -0.14 
-0.355 -0.273 -0.403 
-0.081 -0.284 -0.209 
-0.779 -0.227 0.068 
-0.57 -0.159 -0.057 
0.322 -0.184 -0.091 
0.415 -0.349 -0.021 
-0.655 -0.148 0.041 
0.893 -0.178 -0.023 
-0.65 -0.152 -0.049 
-0.547 -0.309 0.066 
-0.774 -0.181 -0.06 
0.193 -0.332 0.063 
-0.516 -0.273 -0.263 
0.408 -0.119 -0.059 
-0.556 -0.14 0.029 
0.301 -0.093 0.021 
0.211 -0.11 0.048 
0.289 -0.226 0.065 
0.448 -0.254 -0.07 
-0.263 -0.289 -0.387 
-0.838 -0.262 0.041 
0.102 -0.331 -0.016 
0.129 -0.291 -0.095 
-0.902 -0.23 0.06 
-0.376 -0.287 0.414 
-0.177 -0.265 -0.296 
0.427 -0.222 0.064 
0.661 -0.237 -0.016 
-0.425 -0.153 -0.042 
-0.543 -0.225 -0.086 
-0.728 -0.286 -0.044 
-0.593 -0.285 -0.076 
-0.461 -0.066 -0.002 
-0.279 -0.326 -0.005 
-0.84 -0.259 -0.043 
0.406 -0.16 0.087 
-0.285 -0.259 -0.241 
-0.906 -0.24 -0.055 
-0.914 0.192 0.005 
-0.494 -0.283 0.419 
-0.489 -0.273 0.296 
-0.322 -0.313 0.049 
0.564 -0.23 -0.037 
0.011 -0.144 -0.067 
-0.844 0.01 -0.004 
0.217 -0.196 -0.118 
0.526 -0.258 0.077 
0.559 -0.178 0.073 
-0.425 -0.289 -0.354 
-0.252 -0.283 -0.124 
0.026 -0.25 -0.172 
0.297 -0.174 0.142 
0.526 -0.189 -0.074 
-0.428 -0.281 -0.197 
0.758 -0.131 -0.005 
0.65 -0.136 -0.053 
-0.811 0.144 0.005 
0.37 -0.295 -0.027 
-0.907 -0.17 0.035 
-0.453 -0.281 -0.135 
-0.124 -0.288 -0.161 
0.107 -0.092 0.004 
-0.558 -0.254 0.108 
0.156 -0.286 0.095 
-0.505 -0.285 0.57 
0.23 -0.198 0.113 
-0.742 -0.071 -0.005 
-0.704 -0.281 -0.108 
-0.043 -0.193 -0.093 
-0.655 -0.089 0.013 
-0.095 -0.33 -0.041 
-0.125 -0.155 0.06 
-0.777 -0.184 0.016 
-0.65 -0.293 0.12 
-0.579 -0.276 0.344 
-0.113 -0.235 0.171 
-0.448 -0.248 0.109 
-0.387 -0.282 0.21 
-0.354 -0.234 -0.091 
0.85 -0.158 0.017 
0.366 -0.24 0.022 
-0.446 -0.305 0.062 
-0.264 -0.286 0.235 
-0.856 -0.086 0.011 
-0.267 -0.168 0.058 
-0.642 -0.356 -0.151 
-0.367 -0.241 0.105 
-0.06 -0.278 -0.267 
0.177 -0.144 -0.082 
-0.361 -0.282 -0.471 
-0.333 -0.267 -0.279 
-0.393 -0.293 0.515 
-0.789 -0.325 -0.134 
-0.204 -0.134 0.02 
-0.494 -0.276 -0.398 
0.512 -0.061 0.027 
-0.468 -0.279 0.167 
-0.183 -0.327 0.043 
-0.156 -0.266 0.285 
0.299 -0.28 -0.029 
0.011 -0.286 -0.09 
-0.225 -0.265 0.296 
-0.677 -0.206 0.079 
-0.258 -0.159 -0.051 
-0.006 -0.277 0.155 
-0.333 -0.25 -0.172 
-0.363 -0.153 0.041 
-0.768 -0.279 0.102 
0.274 -0.168 -0.214 
-0.312 -0.27 -0.351 
-0.129 -0.148 -0.053 
-0.572 -0.081 -0.074 
-0.551 -0.151 0.087 
0.074 -0.219 -0.105 
0.349 -0.259 -0.072 
-0.19 -0.286 -0.092 
0.333 -0.27 0.09 
-0.571 -0.277 0.501 
-0.54 -0.281 -0.571 
0.05 -0.109 0.023 
0.85 -0.216 -0.032 
0.285 -0.275 0.034 
-0.548 -0.275 -0.457 
0.355 -0.073 0 
-0.902 -0.164 -0.036 
0.195 -0.151 0.085 
0.467 -0.112 -0.05 
-0.858 -0.141 -0.007 
0.435 -0.303 0.016 
0.32 -0.157 -0.174 
-0.482 -0.174 0.062 
-0.145 -0.228 -0.134 
-0.758 -0.017 0.005 
-0.612 -0.311 0.016 
-0.701 -0.171 -0.064 
-0.356 -0.291 -0.074 
-0.215 -0.245 -0.193 
-0.279 -0.244 0.166 
0.609 -0.097 -0.043 
-0.016 -0.329 0.055 
-0.773 -0.278 0.041 
0.634 -0.232 0.033 
-0.124 -0.261 -0.259 
-0.451 -0.28 -0.521 
-0.706 -0.311 0.129 
-0.699 0.074 -0.005 
-0.424 -0.278 -0.473 
-0.07 -0.287 -0.107 
-0.587 -0.277 0.22 
-0.892 0.036 -0.002 
-0.016 -0.133 0.052 
0.107 -0.159 0.088 
-0.799 -0.23 -0.065 
-0.531 -0.269 0.161 
-0.242 -0.283 0.118 
0.768 -0.184 -0.059 
0.465 -0.307 -0.074 
-0.339 -0.137 -0.02 
-0.168 -0.209 0.099 
0.124 -0.257 0.129 
-0.167 -0.288 0.167 
0.027 -0.331 -0.048 
0.322 -0.148 0.085 
0.468 -0.259 0.069 
0.044 -0.113 -0.031 
0.689 -0.114 -0.016 
-0.43 -0.283 0.29 
-0.43 -0.274 0.403 
-0.387 -0.268 -0.273 
-0.584 -0.354 0.103 
-0.417 -0.154 0.041 
0.368 -0.149 -0.081 
-0.57 -0.055 0.005 
0.167 -0.329 0.011 
-0.946 0.149 0.001 
-0.661 -0.3 0.036 
0.795 -0.213 0.045 
-0.31 -0.234 0.1 
-0.166 -0.247 0.209 
0.618 -0.12 0.047 
-0.096 -0.256 0.236 
-0.349 -0.249 0.156 
0.186 -0.087 0.007 
-0.505 -0.28 -0.531 
-0.059 -0.285 0.145 
-0.231 -0.328 0.021 
-0.501 -0.312 -0.049 
0.043 -0.179 -0.09 
-0.225 -0.252 0.22 
-0.282 -0.297 -0.07 
0.519 -0.145 0.07 
0.489 -0.226 -0.053 
-0.07 -0.121 0.016 
-0.29 -0.287 0.371 
0.301 -0.319 0.005 
0.07 -0.331 0.048 
0.677 -0.193 -0.066 
0.263 -0.2 -0.095 
-0.785 0.101 -0.006 
-0.43 -0.104 -0.017 
-0.055 -0.215 0.114 
0.736 -0.189 0.062 
-0.468 -0.228 -0.083 
0.091 -0.286 0.096 
0.682 -0.183 0.067 
-0.548 -0.279 -0.199 
0.058 -0.27 -0.105 
-0.252 -0.286 -0.204 
-0.543 -0.279 -0.36 
-0.532 -0.274 0.269 
-0.661 -0.279 -0.081 
0.12 -0.243 -0.11 
0.456 -0.067 0.029 
-0.329 -0.275 0.428 
0.034 -0.238 0.146 
-0.778 -0.273 -0.046 
-0.027 -0.237 -0.164 
0.285 -0.117 -0.056 
-0.521 -0.267 -0.14 
-0.575 0.014 0.001 
0.129 -0.13 -0.07 
0.081 -0.259 0.161 
-0.215 -0.187 -0.07 
-0.599 -0.282 0.114 
-0.752 -0.134 0.011 
-0.148 -0.32 -0.061 
0.095 -0.119 0.055 
0.102 -0.174 -0.093 
0.904 -0.198 0.026 
0.261 -0.109 0.045 
-0.183 -0.288 -0.204 
-0.473 -0.285 0.516 
-0.271 -0.238 -0.12 
-0.654 -0.248 0.086 
0.355 -0.313 0.081 
-0.881 0.085 -0.004 
0.195 -0.316 -0.083 
0.188 -0.195 -0.237 
-0.763 -0.295 -0.005 
-0.6 -0.148 0.048 
-0.07 -0.285 -0.156 
0.049 -0.201 0.095 
-0.532 -0.14 -0.029 
0.473 -0.261 -0.021 
-0.612 -0.305 -0.037 
-0.854 -0.221 0.062 
0.245 -0.178 0.172 
0.731 -0.238 0 
-0.092 -0.297 0.079 
0.247 -0.281 -0.095 
-0.655 -0.044 -0.006 
-0.677 0.02 -0.006 
-0.228 -0.238 -0.147 
-0.484 -0.14 -0.024 
-0.124 -0.331 0.005 
-0.574 -0.215 0.085 
0.236 -0.18 -0.188 
-0.387 -0.257 -0.198 
-0.392 -0.271 0.328 
-0.424 -0.284 -0.306 
-0.552 -0.325 -0.066 
0.22 -0.325 -0.027 
-0.473 -0.28 -0.226 
0.097 -0.109 -0.039 
-0.532 -0.317 0.021 
-0.382 -0.193 0.069 
0.802 -0.142 0.007 
-0.306 -0.158 -0.048 
0.366 -0.24 -0.032 
-0.365 -0.321 0.031 
-0.494 -0.244 0.091 
0.317 -0.195 0.091 
-0.473 -0.274 0.371 
-0.392 -0.275 -0.435 
-0.865 -0.039 0.001 
-0.312 -0.283 0.183 
0.301 -0.226 -0.059 
-0.817 -0.169 -0.03 
-0.802 -0.317 0.13 
-0.021 -0.331 -0.032 
-0.153 -0.292 -0.334 
-0.172 -0.239 -0.172 
-0.677 -0.326 -0.134 
-0.674 -0.235 -0.081 
0.451 -0.163 0.078 
-0.355 -0.28 -0.14 
-0.196 -0.289 0.368 
-0.387 -0.316 -0.042 
0.532 -0.216 0.059 
-0.55 -0.28 -0.092 
0.424 -0.316 0.059 
-0.231 -0.263 -0.284 
0.505 -0.147 -0.072 
-0.27 -0.21 0.077 
0.215 -0.117 -0.057 
0.589 -0.069 0.029 
-0.79 0.015 0.005 
-0.226 -0.287 -0.333 
-0.086 -0.183 -0.081 
0.226 -0.305 0.091 
-0.781 -0.085 0.012 
0.279 -0.32 -0.038 
-0.82 -0.27 -0.004 
0.281 -0.31 -0.088 
-0.738 -0.249 0.075 
-0.054 -0.248 -0.201 
-0.064 -0.326 0.058 
-0.172 -0.173 -0.068 
0.586 -0.168 -0.072 
0.548 -0.076 -0.042 
0.566 -0.25 -0.077 
-0.453 -0.317 -0.038 
0.519 -0.253 -0.027 
-0.581 -0.201 -0.084 
-0.698 -0.145 0.03 
0.005 -0.28 0.107 
-0.543 -0.279 0.317 
0.187 -0.202 0.22 
-0.107 -0.237 -0.18 
-0.199 -0.286 0.133 
-0.172 -0.257 -0.252 
0.376 -0.099 -0.032 
0.273 -0.33 0.052 
-0.757 -0.15 -0.031 
-0.607 -0.143 -0.037 
-0.29 -0.287 -0.274 
-0.156 -0.288 0.124 
-0.622 -0.324 0.133 
0.577 -0.247 0.077 
-0.303 -0.15 0.04 
-0.16 -0.135 0.029 
-0.658 -0.186 -0.075 
-0.128 -0.287 -0.223 
-0.011 -0.274 -0.182 
0.419 -0.184 -0.081 
0.802 -0.223 -0.035 
0.414 -0.247 -0.043 
0.387 -0.298 0.022 
-0.747 -0.3 -0.124 
-0.365 -0.261 0.242 
0.422 -0.114 0.054 
-0.553 -0.12 -0.072 
-0.443 -0.292 -0.566 
-0.532 -0.274 -0.312 
-0.312 -0.272 -0.408 
-0.231 -0.243 0.171 
-0.333 -0.268 0.301 
0.177 -0.238 0.094 
0.424 -0.303 -0.043 
-0.387 -0.277 0.462 
-0.613 -0.06 0.005 
-0.408 -0.283 0.247 
-0.419 -0.279 0.124 
0.124 -0.331 0.022 
-0.548 -0.099 0.017 
0.329 -0.287 0.007 
-0.482 -0.281 -0.289 
0.596 -0.201 0.064 
-0.095 -0.305 -0.076 
-0.451 -0.182 -0.066 
-0.805 -0.26 0.076 
-0.398 -0.286 -0.387 
-0.007 -0.263 0.213 
0.607 -0.23 -0.036 
-0.801 -0.193 0.051 
-0.247 -0.133 0.015 
-0.488 -0.271 0.252 
0.258 -0.227 0.095 
-0.096 -0.286 0.167 
-0.134 -0.291 0.081 
0 -0.179 0.085 
-0.091 -0.127 -0.021 
-0.013 -0.232 0.147 
-0.43 -0.244 -0.103 
-0.505 -0.303 0.066 
-0.494 -0.103 0.018 
0.324 -0.116 0.057 
-0.22 -0.311 0.062 
-0.408 -0.24 0.096 
-0.556 -0.275 -0.276 
-0.618 -0.125 0.018 
0.909 -0.216 -0.012 
-0.29 -0.268 0.328 
-0.588 -0.254 -0.104 
0.457 -0.205 -0.074 
-0.698 -0.103 0.017 
-0.544 -0.275 0.456 
-0.043 -0.28 0.188 
-0.816 -0.155 0.02 
-0.387 -0.279 -0.113 
0.663 -0.118 0.038 
-0.193 -0.287 0.317 
-0.538 -0.28 0.526 
0.115 -0.231 0.097 
0.448 -0.265 0.032 
-0.312 -0.283 -0.194 
-0.279 -0.283 -0.156 
-0.398 -0.273 0.376 
-0.199 -0.288 0.193 
-0.317 -0.287 -0.312 
-0.215 -0.329 -0.022 
0.828 -0.232 0 
-0.029 -0.136 -0.055 
-0.566 -0.119 0.114 
-0.511 -0.06 0.004 
0.553 -0.25 0 
-0.312 -0.286 0.247 
-0.478 -0.283 -0.435 
-0.817 -0.262 -0.084 
-0.467 -0.284 0.473 
0.334 -0.152 0.167 
-0.688 -0.283 0.063 
-0.462 -0.274 -0.365 
-0.613 -0.243 0.086 
0.359 -0.305 -0.086 
-0.081 -0.284 0.209 
-0.72 -0.211 0.076 
-0.618 -0.169 -0.068 
0.134 -0.326 -0.068 
0.387 -0.27 -0.085 
-0.274 -0.283 0.151 
0.058 -0.241 -0.138 
-0.398 -0.283 -0.236 
0.403 -0.245 0.038 
-0.795 0.058 0.005 
-0.322 -0.282 0.095 
0.274 -0.188 0.102 
0.778 -0.148 -0.037 
-0.879 -0.266 -0.035 
0.607 -0.136 -0.058 
-0.241 -0.292 0.404 
-0.546 -0.275 0.376 
0.303 -0.174 -0.128 
-0.156 -0.131 -0.017 
0.194 -0.191 0.269 
-0.567 -0.358 -0.049 
0.816 -0.17 0.045 
0.373 -0.14 0.075 
-0.742 0.079 -0.006 
0.28 -0.094 -0.019 
-0.371 -0.28 0.14 
-0.386 -0.164 -0.052 
0.376 -0.254 0.072 
-0.308 -0.316 -0.043 
-0.166 -0.209 -0.099 
0.495 -0.227 0.05 
0.551 -0.055 0.018 
0.639 -0.204 0.062 
-0.902 -0.2 -0.061 
-0.084 -0.244 0.2 
0.225 -0.192 0.209 
0.44 -0.286 0.08 
-0.15 -0.23 0.139 
0.34 -0.219 -0.081 
-0.433 -0.28 0.518 
-0.936 -0.086 0 
0.398 -0.199 0.08 
-0.102 -0.134 0.036 
0.583 -0.135 0.059 
0.147 -0.093 0.01 
0.285 -0.15 -0.088 
-0.269 -0.253 0.214 
-0.639 -0.26 -0.108 
0.478 -0.052 0 
-0.303 -0.243 -0.142 
0.537 -0.253 0.038 
-0.881 -0.19 0.057 
0.233 -0.132 0.073 
-0.435 -0.281 0.198 
-0.772 0.15 0.001 
-0.465 -0.219 0.08 
-0.36 -0.255 0.193 
0.193 -0.193 -0.276 
0.209 -0.326 0.027 
0.854 -0.168 -0.032 
0.328 -0.232 0.025 
0.338 -0.319 -0.032 
0.045 -0.27 0.126 
-0.891 -0.076 -0.004 
-0.433 -0.259 -0.161 
-0.244 -0.217 -0.092 
-0.242 -0.285 -0.086 
-0.526 -0.28 -0.424 
-0.344 -0.287 -0.365 
0.027 -0.274 -0.129 
-0.756 -0.254 -0.072 
-0.161 -0.17 0.067 
0.739 -0.15 0.05 
-0.342 -0.222 0.079 
-0.317 -0.2 -0.074 
-0.242 -0.253 -0.223 
0.516 -0.098 0.046 
-0.57 -0.282 0.083 
-0.833 -0.119 0.012 
-0.231 -0.285 -0.172 
0.4 -0.135 -0.099 
-0.094 -0.255 -0.231 
0 -0.116 -0.026 
-0.457 -0.283 -0.328 
-0.048 -0.22 -0.12 
0.258 -0.281 0.094 
-0.344 -0.287 0.392 
-0.252 -0.287 -0.253 
-0.585 -0.276 -0.188 
0.719 -0.189 -0.064 
-0.555 -0.339 0.043 
0.322 -0.13 -0.07 
-0.581 -0.309 0.047 
0.462 -0.071 -0.032 
-0.527 -0.278 -0.489 
-0.876 -0.257 0.035 
-0.225 -0.287 -0.386 
-0.569 -0.134 -0.022 
0.318 -0.32 0.055 
-0.587 -0.095 0.017 
0.233 -0.166 0.091 
0.225 -0.197 -0.156 
-0.204 -0.253 -0.23 
0.472 -0.312 0.016 
0.145 -0.163 0.089 
-0.672 -0.136 -0.022 
-0.156 -0.288 -0.124 
-0.414 -0.125 0.017 
0.392 -0.135 0.116 
0.075 -0.331 -0.043 
-0.838 0.112 0.005 
-0.467 -0.274 0.333 
-0.161 -0.288 0.242 
-0.604 -0.29 -0.116 
-0.521 -0.28 -0.226 
-0.317 -0.286 -0.247 
-0.704 -0.066 -0.006 
0.736 -0.227 0.038 
-0.731 0.01 0.005 
0.564 -0.199 -0.067 
0.313 -0.281 -0.064 
0.326 -0.234 0.068 
0.091 -0.286 -0.096 
-0.274 -0.262 0.263 
-0.303 -0.293 0.449 
-0.098 -0.187 0.083 
-0.763 -0.102 -0.016 
0.161 -0.237 -0.095 
-0.736 -0.186 -0.069 
-0.001 -0.321 -0.073 
-0.816 -0.192 -0.06 
0.617 -0.072 -0.014 
-0.473 -0.098 -0.017 
-0.501 -0.149 0.04 
-0.016 -0.167 -0.079 
-0.849 -0.264 0.082 
-0.334 -0.278 -0.445 
0.662 -0.152 0.063 
-0.759 -0.16 0.045 
-0.634 0.02 0.005 
0.357 -0.179 0.086 
-0.268 -0.292 -0.425 
-0.876 0.187 -0.006 
-0.648 -0.173 0.068 
0.202 -0.201 0.14 
-0.74 -0.297 0.122 
0.511 -0.117 -0.051 
0.199 -0.1 -0.026 
-0.891 -0.153 0.005 
-0.129 -0.245 0.209 
-0.248 -0.269 -0.359 
0.389 -0.077 0.021 
0.174 -0.109 0.049 
-0.777 -0.211 -0.038 
0.602 -0.237 0 
0.016 -0.101 0.004 
0.188 -0.306 0.09 
-0.082 -0.226 0.137 
-0.553 -0.149 -0.096 
0.228 -0.096 0.018 
-0.538 -0.175 -0.068 
-0.057 -0.255 0.222 
-0.521 -0.251 -0.107 
-0.53 -0.164 0.058 
0.481 -0.14 0.07 
0.265 -0.088 0.015 
-0.15 -0.239 0.177 
-0.854 -0.23 -0.06 
-0.43 -0.28 0.161 
-0.113 -0.284 0.252 
-0.188 -0.288 -0.269 
0.308 -0.28 0.065 
-0.694 -0.284 -0.059 
0.334 -0.15 -0.134 
-0.932 0.049 -0.001 
-0.468 -0.285 0.083 
0.644 -0.098 -0.032 
0.086 -0.319 0.081 
-0.317 -0.231 -0.094 
-0.913 0.101 0.002 
0.108 -0.195 0.095 
0.021 -0.266 -0.204 
-0.432 -0.28 -0.098 
-0.527 -0.28 0.092 
0.193 -0.211 -0.095 
-0.357 -0.287 0.327 
0.725 -0.126 0.011 
-0.441 -0.099 0.017 
-0.14 -0.29 0.306 
0.204 -0.166 -0.091 
0.462 -0.213 0.068 
-0.07 -0.279 0.263 
0.484 -0.276 -0.074 
-0.844 0.165 -0.006 
-0.393 -0.235 -0.085 
0.686 -0.226 -0.043 
-0.777 -0.227 0.032 
-0.578 -0.276 -0.365 
-0.091 -0.331 0.027 
0.281 -0.243 -0.032 
0.403 -0.301 -0.011 
-0.564 -0.089 -0.014 
0.21 -0.221 0.095 
-0.704 -0.302 -0.022 
-0.709 0.036 -0.006 
-0.332 -0.13 0.014 
0.424 -0.125 0.088 
-0.322 -0.255 -0.215 
-0.483 -0.268 0.209 
-0.645 -0.103 -0.018 
-0.478 -0.261 -0.118 
-0.559 -0.278 0.134 
-0.469 -0.289 -0.079 
-0.027 -0.283 0.123 
-0.469 -0.285 0.572 
0.435 -0.102 -0.039 
0.926 -0.184 0.003 
-0.473 -0.279 -0.167 
-0.138 -0.195 0.086 
0.26 -0.173 0.228 
-0.333 -0.323 0.016 
-0.809 -0.085 -0.011 
-0.382 -0.28 -0.172 
0.156 -0.336 0.044 
-0.252 -0.287 0.296 
-0.666 -0.012 0.005 
-0.414 -0.312 0.049 
0.371 -0.184 -0.085 
-0.666 -0.125 0.017 
0.303 -0.247 0.091 
0.075 -0.1 -0.009 
-0.005 -0.306 0.084 
0.728 -0.131 -0.024 
0.424 -0.28 -0.073 
0.871 -0.189 0.036 
0.392 -0.317 -0.043 
0.254 -0.177 0.129 
-0.091 -0.208 -0.106 
-0.405 -0.085 0.003 
0.575 -0.103 -0.048 
-0.822 -0.23 0.053 
-0.688 -0.095 -0.017 
-0.741 -0.268 -0.11 
0.124 -0.299 0.092 
-0.183 -0.257 0.247 
-0.22 -0.236 0.139 
-0.411 -0.287 0.485 
-0.166 -0.309 0.07 
-0.183 -0.311 -0.068 
0.823 -0.197 -0.049 
-0.366 -0.289 0.493 
0.281 -0.232 0.032 
-0.306 -0.272 0.397 
-0.295 -0.296 0.069 
0.654 -0.216 -0.054 
0.101 -0.322 -0.078 
-0.459 -0.155 0.045 
0.158 -0.31 -0.088 
-0.006 -0.196 -0.095 
-0.215 -0.285 -0.129 
-0.588 -0.171 0.071 
-0.224 -0.154 0.047 
-0.317 -0.245 0.145 
-0.21 -0.266 -0.312 
0.756 -0.216 -0.049 
-0.29 -0.252 -0.204 
-0.553 -0.279 0.188 
0.236 -0.179 -0.093 
0.063 -0.264 -0.175 
0.048 -0.331 -0.016 
-0.236 -0.258 0.252 
-0.794 -0.294 -0.12 
-0.805 -0.276 0.029 
0 -0.232 -0.142 
-0.672 -0.289 -0.119 
-0.108 -0.287 -0.123 
0.71 -0.163 0.063 
-0.551 -0.124 0.059 
0.318 -0.155 0.118 
0.331 -0.233 -0.009 
0.312 -0.076 -0.007 
-0.15 -0.331 0.027 
0.296 -0.208 -0.092 
-0.226 -0.13 -0.012 
-0.691 -0.164 0.057 
0.27 -0.172 -0.113 
-0.2 -0.205 0.087 
-0.51 -0.269 0.188 
-0.946 0.192 -0.006 
-0.827 0.042 -0.005 
-0.15 -0.288 -0.193 
-0.344 -0.285 0.258 
-0.357 -0.287 0.448 
-0.387 -0.286 -0.355 
0.018 -0.13 0.054 
-0.633 -0.288 -0.063 
-0.736 -0.279 0.091 
0.388 -0.244 -0.004 
0.044 -0.129 -0.06 
-0.371 -0.249 -0.124 
-0.523 -0.297 -0.07 
-0.004 -0.244 0.178 
-0.462 -0.284 0.408 
-0.092 -0.274 -0.28 
0.749 -0.156 -0.053 
-0.183 -0.288 0.285 
-0.451 -0.321 0.021 
-0.473 -0.16 -0.051 
-0.5 -0.266 0.15 
-0.741 -0.274 0.053 
-0.032 -0.169 0.078 
-0.539 -0.28 0.577 
-0.477 -0.269 -0.257 
-0.914 0.16 -0.005 
0.031 -0.312 -0.085 
0.672 -0.237 0.016 
0.548 -0.163 -0.073 
0.351 -0.291 0.056 
0.685 -0.16 -0.064 
-0.282 -0.269 -0.368 
-0.673 -0.322 0.134 
0.538 -0.055 -0.018 
-0.725 -0.338 0.141 
0.281 -0.254 0 
-0.257 -0.139 -0.025 
-0.016 -0.331 0.022 
-0.034 -0.12 -0.023 
0.297 -0.13 0.07 
-0.36 -0.286 -0.285 
0.229 -0.188 -0.22 
0.028 -0.224 0.116 
0.282 -0.259 0.065 
0.228 -0.324 0.064 
-0.5 -0.219 -0.082 
-0.457 -0.285 -0.484 
-0.874 -0.169 0.03 
-0.371 -0.144 -0.03 
-0.86 -0.162 -0.033 
-0.523 -0.252 0.109 
-0.577 -0.277 0.389 
-0.29 -0.281 0.104 
-0.279 -0.316 0.047 
-0.15 -0.289 -0.301 
-0.157 -0.291 -0.08 
-0.566 -0.347 0.073 
0.258 -0.315 0.083 
-0.376 -0.324 0 
0.408 -0.245 -0.082 
-0.061 -0.134 0.045 
0.626 -0.086 0.029 
-0.233 -0.287 0.223 
-0.784 -0.148 0.016 
-0.5 -0.278 0.451 
-0.768 -0.196 0.067 
-0.392 -0.252 0.123 
0.666 -0.222 0.049 
-0.262 -0.27 0.372 
0.544 -0.076 0.042 
-0.73 -0.157 -0.048 
0.161 -0.321 0.078 
-0.338 -0.284 0.226 
-0.8 -0.114 0.014 
0.355 -0.318 0 
-0.777 -0.178 -0.016 
-0.849 -0.262 -0.078 
0.564 -0.219 0.051 
-0.225 -0.286 0.083 
0.297 -0.161 0.172 
0.682 -0.131 -0.043 
-0.559 -0.273 0.236 
-0.881 -0.119 0.009 
-0.451 -0.136 -0.021 
-0.144 -0.286 -0.263 
-0.349 -0.302 0.064 
-0.532 -0.317 -0.016 
0.825 -0.221 0.033 
0.152 -0.252 0.108 
0.419 -0.253 0.071 
-0.177 -0.231 -0.137 
-0.526 -0.28 0.43 
-0.365 -0.201 -0.073 
0.323 -0.259 -0.091 
0.172 -0.118 -0.061 
0.33 -0.151 -0.102 
-0.387 -0.281 0.177 
0.247 -0.117 -0.056 
-0.221 -0.287 -0.209 
0.876 -0.223 -0.015 
0.322 -0.306 0.089 
-0.44 -0.262 -0.22 
-0.946 0.117 0.001 
-0.038 -0.285 -0.107 
-0.311 -0.282 -0.16 
0.542 -0.252 -0.054 
-0.817 -0.007 0.004 
0.385 -0.072 -0.012 
0.376 -0.242 -0.065 
-0.525 -0.135 0.021 
-0.577 -0.307 -0.05 
-0.625 -0.326 -0.136 
-0.188 -0.122 -0.004 
-0.664 -0.292 -0.05 
-0.311 -0.324 -0.01 
-0.774 -0.257 0.077 
-0.313 -0.29 -0.074 
-0.677 -0.279 0.097 
-0.698 -0.2 -0.077 
-0.236 -0.185 0.068 
-0.556 -0.254 -0.109 
0.49 -0.258 0.043 
-0.064 -0.287 0.102 
0.199 -0.327 -0.054 
-0.113 -0.23 -0.15 
-0.127 -0.255 0.243 
-0.38 -0.136 0.021 
0.392 -0.315 0.073 
0.457 -0.304 -0.043 
-0.102 -0.284 -0.242 
-0.252 -0.287 -0.296 
0.129 -0.331 -0.038 
-0.336 -0.27 -0.33 
-0.408 -0.272 -0.333 
-0.512 -0.281 -0.366 
0.43 -0.194 0.079 
-0.182 -0.149 0.046 
-0.571 -0.332 -0.091 
-0.478 -0.282 -0.548 
-0.295 -0.267 -0.301 
0.419 -0.145 -0.075 
-0.039 -0.27 -0.243 
0.333 -0.287 -0.032 
0.886 -0.17 0.015 
-0.424 -0.287 -0.505 
-0.215 -0.267 0.327 
-0.396 -0.288 -0.077 
-0.257 -0.324 -0.036 
-0.457 -0.271 0.279 
-0.355 -0.279 0.113 
0.698 -0.236 -0.016 
0.774 -0.138 0.021 
-0.826 -0.138 -0.012 
0.276 -0.167 -0.183 
0.379 -0.295 -0.062 
-0.629 -0.301 0.041 
-0.484 -0.315 0.042 
-0.156 -0.288 0.21 
-0.279 -0.286 -0.22 
0.01 -0.273 -0.155 
0.484 -0.244 -0.078 
-0.417 -0.319 -0.035 
0.005 -0.331 -0.016 
0.011 -0.331 0.038 
-0.504 -0.275 0.377 
-0.371 -0.272 0.36 
-0.682 -0.259 -0.098 
-0.193 -0.244 0.193 
-0.774 -0.044 0.004 
-0.408 -0.28 -0.15 
-0.451 -0.285 -0.451 
0.465 -0.235 0.045 
-0.305 -0.265 0.271 
-0.435 -0.274 -0.381 
-0.564 -0.276 -0.484 
-0.296 -0.259 0.241 
-0.391 -0.287 -0.467 
-0.382 -0.27 -0.306 
0.528 -0.217 -0.06 
-0.414 -0.284 -0.274 
-0.123 -0.218 -0.115 
-0.849 -0.269 0.008 
-0.553 -0.279 -0.236 
-0.482 -0.287 -0.507 
0.43 -0.22 -0.067 
-0.543 -0.279 0.489 
-0.906 -0.258 0.042 
0.328 -0.296 -0.09 
-0.289 -0.281 -0.1 
-0.497 -0.28 0.535 
-0.69 -0.302 0.028 
-0.368 -0.259 -0.223 
-0.538 -0.281 -0.532 
-0.505 -0.152 -0.043 
0.448 -0.266 -0.041 
-0.258 -0.188 -0.07 
-0.082 -0.205 0.103 
0.031 -0.171 0.086 
-0.848 -0.107 -0.012 
-0.183 -0.277 -0.338 
-0.052 -0.28 -0.199 
-0.438 -0.172 0.059 
0.359 -0.153 0.107 
0.607 -0.224 0.045 
-0.274 -0.266 0.301 
0.585 -0.163 0.071 
-0.356 -0.176 0.061 
-0.543 -0.071 0.005 
-0.347 -0.281 0.184 
-0.582 -0.277 0.313 
-0.473 -0.283 0.131 
-0.406 -0.254 -0.123 
-0.511 -0.278 -0.457 
-0.252 -0.287 0.263 
-0.406 -0.183 -0.065 
-0.677 0.053 -0.005 
-0.367 -0.292 -0.499 
0.332 -0.09 0.022 
-0.798 -0.283 0.112 
-0.365 -0.284 -0.242 
-0.22 -0.288 0.269 
-0.161 -0.288 -0.226 
0.269 -0.321 -0.005 
-0.397 -0.28 0.103 
-0.091 -0.285 -0.177 
0.091 -0.257 -0.124 
-0.845 -0.162 0.015 
-0.408 -0.276 0.435 
-0.767 -0.226 -0.071 
0.344 -0.235 -0.054 
0.282 -0.248 -0.065 
-0.29 -0.287 -0.338 
-0.29 -0.285 0.204 
-0.092 -0.156 0.064 
-0.752 -0.292 0.024 
-0.576 -0.277 -0.444 
0.596 -0.099 0.046 
-0.297 -0.172 0.06 
0.08 -0.148 0.082 
-0.419 -0.294 0.073 
-0.03 -0.201 0.101 
0.345 -0.288 -0.065 
0.709 -0.203 0.06 
0.07 -0.179 0.092 
-0.424 -0.262 0.22 
-0.698 -0.243 0.078 
-0.191 -0.223 0.112 
0.129 -0.155 -0.086 
-0.073 -0.238 -0.18 
0.011 -0.326 0.068 
-0.817 -0.276 -0.111 
-0.332 -0.292 -0.472 
-0.819 0.179 0.003 
-0.529 -0.235 0.086 
0.05 -0.086 0 
0.427 -0.072 0.026 
-0.559 -0.191 0.078 
-0.344 -0.245 0.123 
-0.274 -0.287 0.344 
-0.401 -0.269 0.282 
-0.698 -0.303 -0.126 
0.435 -0.316 -0.011 
-0.052 -0.227 0.141 
-0.306 -0.138 -0.02 
0.23 -0.196 0.15 
0.376 -0.318 0.048 
-0.796 -0.285 -0.012 
-0.043 -0.313 0.076 
0.357 -0.238 0.056 
0.064 -0.274 0.096 
-0.634 -0.139 -0.026 
0.058 -0.119 0.05 
0.797 -0.184 -0.054 
0.145 -0.105 0.037 
-0.558 -0.273 -0.172 
0.684 -0.109 0.013 
-0.29 -0.25 0.193 
0.093 -0.26 0.109 
-0.301 -0.287 -0.382 
0.478 -0.083 0.04 
-0.215 -0.258 -0.257 
0.763 -0.219 0.046 
-0.865 0.047 0.003 
0.926 -0.212 0.011 
0.835 -0.152 -0.016 
0.548 -0.142 0.067 
0.494 -0.092 -0.044 
0.119 -0.102 -0.02 
-0.574 -0.277 0.456 
-0.979 0.163 -0.003 
0.398 -0.162 -0.088 
-0.493 -0.283 -0.131 
0.292 -0.162 0.097 
-0.007 -0.281 -0.113 
-0.758 0.015 -0.006 
-0.789 -0.26 -0.076 
-0.833 -0.071 0.002 
0.161 -0.207 -0.247 
0.868 -0.194 -0.038 
-0.521 -0.274 0.296 
-0.543 -0.275 -0.392 
-0.55 -0.122 -0.043 
-0.827 -0.201 0.06 
-0.734 -0.14 -0.013 
-0.44 -0.273 0.371 
0.273 -0.176 0.183 
-0.183 -0.249 -0.211 
-0.65 -0.265 0.111 
-0.462 -0.321 -0.011 
-0.917 0.011 -0.001 
0.113 -0.107 0.036 
0.5 -0.177 -0.076 
-0.201 -0.238 -0.158 
0.301 -0.105 -0.036 
-0.582 -0.277 -0.288 
0.469 -0.249 0.005 
-0.07 -0.279 -0.236 
0.097 -0.331 0.032 
-0.462 -0.28 -0.199 
0.242 -0.18 -0.14 
-0.896 -0.043 0 
0.177 -0.328 -0.016 
0.446 -0.304 0.043 
0.043 -0.331 0.038 
-0.713 -0.286 0.117 
-0.811 0.117 -0.006 
0.226 -0.211 -0.095 
-0.87 -0.001 -0.003 
-0.58 -0.028 0.005 
0.075 -0.163 -0.089 
0.22 -0.291 -0.095 
-0.871 0.16 0.005 
-0.725 -0.114 0.017 
0.386 -0.224 0.071 
-0.31 -0.27 0.351 
-0.102 -0.163 -0.069 
0.129 -0.184 -0.094 
-0.794 -0.248 -0.044 
-0.558 -0.294 -0.068 
-0.506 -0.281 0.328 
-0.774 0.074 -0.006 
-0.731 -0.095 -0.017 
0.494 -0.254 0.079 
-0.462 -0.283 -0.392 
-0.714 -0.285 0.052 
0.634 -0.235 -0.026 
-0.398 -0.28 -0.494 
0.198 -0.202 -0.147 
-0.72 0.095 0.005 
-0.645 -0.308 0.014 
-0.419 -0.293 -0.538 
-0.827 -0.221 -0.062 
-0.286 -0.238 0.113 
-0.346 -0.281 -0.099 
0.46 -0.226 -0.054 
-0.362 -0.287 -0.427 
0.076 -0.212 0.1 
-0.13 -0.271 -0.285 
-0.283 -0.276 -0.403 
-0.639 -0.076 -0.006 
-0.682 -0.155 -0.05 
-0.554 -0.336 -0.037 
-0.59 -0.13 0.019 
-0.741 -0.277 -0.083 
0.015 -0.269 0.171 
-0.482 -0.294 0.347 
-0.118 -0.272 0.283 
-0.273 -0.265 -0.277 
0.206 -0.188 0.237 
0.543 -0.114 -0.048 
-0.493 -0.215 0.079 
-0.22 -0.159 -0.052 
0.123 -0.258 0.097 
-0.244 -0.26 -0.255 
0.188 -0.291 -0.095 
-0.066 -0.312 -0.074 
-0.33 -0.243 -0.115 
-0.335 -0.281 -0.176 
-0.849 -0.274 -0.021 
-0.447 -0.284 0.119 
-0.548 -0.039 -0.005 
0.639 -0.158 -0.067 
-0.795 -0.242 0.048 
-0.354 -0.265 -0.261 
-0.296 -0.178 -0.064 
-0.792 -0.161 0.039 
-0.795 -0.023 -0.004 
0.023 -0.115 0.031 
0.869 -0.161 -0.005 
-0.608 0.03 0.003 
-0.532 -0.274 0.403 
-0.908 0.128 -0.004 
-0.562 -0.104 -0.096 
0.177 -0.174 -0.093 
-0.697 -0.343 -0.144 
-0.07 -0.284 0.177 
-0.091 -0.32 0.063 
-0.329 -0.156 0.045 
-0.333 -0.251 0.188 
-0.263 -0.241 -0.15 
-0.706 -0.187 0.071 
-0.22 -0.292 0.382 
-0.045 -0.155 -0.07 
0.446 -0.244 0.078 
-0.558 -0.165 0.062 
-0.419 -0.276 -0.441 
-0.637 -0.344 0.144 
-0.017 -0.254 -0.2 
-0.738 -0.296 -0.018 
0.843 -0.175 0.04 
0.361 -0.143 -0.107 
-0.357 -0.248 -0.148 
-0.273 -0.277 0.398 
-0.494 -0.244 -0.091 
-0.118 -0.229 0.145 
-0.919 0.074 -0.002 
0.252 -0.176 -0.235 
-0.408 -0.139 -0.024 
0.354 -0.292 0.016 
-0.065 -0.125 -0.028 
-0.209 -0.285 0.108 
-0.132 -0.33 -0.041 
-0.505 -0.319 -0.021 
0.026 -0.237 -0.147 
-0.371 -0.287 -0.382 
-0.175 -0.269 0.309 
-0.073 -0.233 0.162 
-0.575 -0.227 -0.088 
0.435 -0.123 -0.061 
-0.21 -0.306 -0.068 
-0.559 -0.278 0.263 
-0.172 -0.328 -0.043 
-0.816 -0.272 -0.031 
-0.097 -0.244 -0.205 
-0.145 -0.165 -0.066 
-0.022 -0.119 0.029 
-0.623 -0.279 0.102 
-0.5 -0.282 0.087 
-0.14 -0.288 0.172 
-0.548 -0.279 0.29 
-0.505 -0.271 0.226 
-0.526 -0.268 0.134 
-0.247 -0.287 0.322 
0.306 -0.319 -0.021 
0.055 -0.255 0.167 
0.353 -0.124 0.065 
-0.064 -0.331 -0.016 
-0.306 -0.246 -0.172 
0.484 -0.129 -0.064 
-0.403 -0.285 0.306 
-0.666 -0.071 -0.006 
-0.451 -0.283 -0.301 
-0.403 -0.282 -0.21 
-0.446 -0.207 -0.077 
-0.14 -0.286 0.274 
-0.252 -0.328 0 
0.263 -0.248 -0.095 
-0.156 -0.288 -0.167 
-0.236 -0.284 0.145 
-0.177 -0.331 0.016 
-0.381 -0.274 -0.408 
-0.344 -0.153 -0.041 
-0.543 -0.149 -0.061 
-0.521 -0.109 0.017 
-0.398 -0.28 0.145 
-0.461 -0.264 0.193 
0.204 -0.198 -0.215 
-0.726 -0.253 -0.081 
-0.725 -0.144 0.025 
-0.747 -0.044 -0.005 
-0.526 -0.274 -0.338 
-0.65 -0.221 0.083 
-0.51 -0.285 -0.58 
-0.528 -0.312 -0.043 
-0.215 -0.288 0.344 
0.286 -0.274 -0.057 
-0.193 -0.31 0.067 
0.113 -0.221 -0.095 
-0.108 -0.286 -0.204 
0.483 -0.168 0.076 
-0.22 -0.288 -0.279 
0.349 -0.318 -0.059 
-0.838 -0.039 -0.003 
-0.016 -0.29 -0.088 
-0.568 -0.276 -0.543 
-0.376 -0.252 0.161 
0.51 -0.122 0.057 
-0.258 -0.283 0.096 
-0.872 -0.269 -0.008 
-0.349 -0.267 0.279 
-0.433 -0.237 0.086 
0.521 -0.081 -0.043 
0.122 -0.139 0.077 
-0.422 -0.259 0.188 
0.575 -0.073 -0.037 
-0.216 -0.286 0.171 
-0.383 -0.167 0.054 
0.532 -0.142 -0.068 
0.043 -0.222 -0.112 
0.183 -0.28 0.095 
-0.134 -0.237 -0.177 
-0.887 -0.18 -0.052 
0.403 -0.127 0.067 
-0.5 -0.119 -0.018 
-0.718 -0.083 0.009 
-0.838 -0.162 -0.015 
0.502 -0.249 -0.056 
0.472 -0.262 -0.054 
-0.698 -0.34 0.142 
0.612 -0.168 -0.07 
-0.322 -0.287 0.285 
-0.386 -0.265 0.258 
0.226 -0.243 -0.095 
0.7 -0.207 -0.059 
0.553 -0.244 0.065 
-0.274 -0.326 0.021 
-0.376 -0.282 -0.21 
-0.075 -0.222 -0.124 
-0.811 0.09 -0.006 
-0.79 -0.177 -0.039 
-0.446 -0.28 -0.172 
0.102 -0.331 -0.043 
-0.032 -0.331 0 
-0.698 0.004 -0.006 
-0.553 -0.278 -0.124 
-0.865 0.112 0.005 
-0.134 -0.288 0.14 
-0.777 -0.211 0.011 
-0.156 -0.288 0.097 
-0.183 -0.288 -0.242 
-0.204 -0.328 0.027 
-0.616 -0.164 0.063 
-0.608 -0.312 -0.011 
-0.451 -0.286 0.494 
-0.279 -0.282 -0.129 
-0.461 -0.282 0.255 
0.07 -0.331 0.022 
0.419 -0.302 0.081 
-0.371 -0.273 0.387 
0.033 -0.156 -0.08 
-0.43 -0.322 -0.005 
-0.731 -0.017 0.005 
0.354 -0.286 0.088 
-0.543 -0.278 -0.15 
0.025 -0.271 0.144 
-0.043 -0.331 0.043 
-0.236 -0.284 -0.145 
-0.424 -0.257 0.14 
-0.252 -0.247 0.187 
-0.908 -0.19 0.053 
0.408 -0.317 0.038 
0.798 -0.232 0.018 
-0.113 -0.134 -0.035 
0.349 -0.093 -0.025 
-0.199 -0.25 0.22 
-0.714 -0.278 -0.075 
0.247 -0.333 0.048 
-0.06 -0.277 0.236 
-0.343 -0.115 -0.005 
-0.398 -0.105 -0.014 
0.591 -0.193 -0.067 
-0.085 -0.286 0.141 
0.134 -0.113 -0.05 
0.169 -0.151 0.086 
-0.161 -0.143 -0.04 
0.758 -0.236 0.016 
-0.179 -0.192 0.077 
0.758 -0.236 -0.016 
0.023 -0.2 0.096 
0.436 -0.076 -0.031 
-0.412 -0.293 0.533 
-0.893 0.208 0.001 
-0.905 -0.261 -0.04 
-0.629 -0.19 -0.079 
0.114 -0.257 -0.136 
-0.618 -0.279 -0.097 
-0.002 -0.129 -0.049 
-0.505 -0.035 0.001 
-0.779 -0.261 0.022 
-0.468 -0.286 0.546 
-0.505 -0.319 0.026 
0.101 -0.259 0.143 
0.102 -0.136 -0.075 
0.22 -0.134 -0.076 
-0.537 -0.275 0.349 
-0.871 -0.241 0.056 
-0.006 -0.271 0.188 
0.306 -0.232 -0.089 
-0.881 -0.155 -0.019 
-0.131 -0.29 -0.32 
-0.586 -0.076 -0.006 
0.053 -0.266 -0.133 
-0.247 -0.249 -0.198 
-0.661 -0.28 0.076 
-0.582 -0.276 0.188 
0.151 -0.141 -0.08 
0.172 -0.097 -0.017 
-0.052 -0.185 0.084 
-0.278 -0.314 -0.051 
-0.312 -0.262 -0.257 
-0.387 -0.217 0.077 
-0.838 -0.171 -0.045 
-0.543 -0.119 -0.018 
0.31 -0.157 -0.15 
-0.392 -0.286 0.349 
-0.91 -0.085 0.012 
0.051 -0.232 0.125 
-0.446 -0.26 0.156 
0.166 -0.206 0.235 
0.604 -0.213 -0.056 
0.448 -0.264 0.005 
-0.561 -0.313 0.031 
-0.244 -0.243 -0.169 
-0.613 -0.099 0.017 
-0.725 0.053 0.005 
