ply
format ascii 1.0
comment Created by CloudCompare v2.10.2 (Zephyrus)
comment Created 2022/8/26 17:12
obj_info Generated by CloudCompare!
element vertex 1785
property float x
property float y
property float z
end_header
-0.365 -0.124 -0.775 
0.324 0.041 0.944 
-0.001 0.562 0.017 
-0.391 -0.129 0.427 
0.398 -0.126 -0.334 
-0.156 0.449 0.692 
0.253 0.021 -0.964 
0.419 0.129 0.297 
-0.511 0.234 -0.24 
0 0.256 -0.498 
-0.109 -0.128 -0.084 
-0.228 -0.033 0.95 
-0.356 0.316 0.253 
0.076 -0.128 0.525 
0.36 0.308 -0.174 
0.305 0.403 0.65 
0.054 -0.14 -0.627 
0.391 0.167 -0.614 
0.403 -0.271 0.698 
-0.109 0.152 -0.887 
-0.381 -0.129 -0.366 
0.272 -0.128 0.047 
-0.415 0.17 0.688 
0.267 0.471 0.274 
-0.376 0.2 -0.593 
0.409 -0.217 -0.702 
0.018 0.232 0.952 
-0.419 -0.011 0.09 
-0.195 0.392 -0.208 
-0.065 0.488 0.351 
-0.38 -0.258 0.742 
0.336 0.065 0.613 
-0.033 -0.159 -0.943 
-0.098 -0.128 0.253 
0.082 -0.001 -0.321 
0.076 -0.128 0.895 
-0.196 0.091 -0.301 
0.305 -0.128 0.34 
0.097 0.376 -0.257 
-0.259 0.255 0.903 
0.141 0.206 -0.731 
0.42 0.118 0.014 
-0.249 0.471 0.069 
-0.337 0.36 0.525 
0.239 0.466 0.005 
-0.174 -0.128 0.59 
-0.12 -0.128 -0.421 
-0.37 -0.278 -0.572 
0.418 0.129 -0.345 
-0.396 0.222 -0.008 
0.273 -0.054 -0.539 
0.252 0.29 0.861 
-0.347 0.102 -0.868 
0.087 0.472 0.568 
-0.424 0.021 -0.16 
-0.418 0.149 0.438 
0.243 0.26 -0.452 
-0.284 -0.018 -0.569 
0.413 0.004 -0.787 
0.196 -0.155 -0.824 
0.356 0.315 0.419 
-0.419 -0.032 0.821 
-0.313 0.273 -0.374 
0.207 -0.128 -0.171 
0.228 -0.128 0.71 
-0.141 0.223 -0.67 
-0.141 -0.147 -0.737 
0.047 0.379 0.787 
0.357 0.323 0.136 
0.408 -0.065 -0.116 
0.033 -0.128 0.079 
-0.239 -0.128 0.09 
-0.236 -0.095 -0.946 
-0.425 0.091 -0.372 
0.349 -0.255 -0.502 
0.226 0.138 -0.259 
0.411 -0.153 0.526 
0.413 -0.118 0.842 
-0.409 -0.021 0.612 
0.406 0.172 0.774 
0.032 0.044 -0.987 
-0.026 0.217 -0.301 
-0.022 0.034 0.97 
0.098 -0.128 0.297 
-0.141 -0.128 0.797 
-0.283 -0.128 -0.192 
-0.279 0.463 0.362 
-0.424 0.022 0.286 
-0.328 0.354 0.719 
0.413 -0.036 0.139 
0.076 0.488 0.221 
0.259 0.469 0.481 
-0.408 0.041 -0.704 
-0.326 0.382 -0.073 
0.281 0.152 -0.838 
-0.32 -0.238 0.571 
-0.033 -0.128 -0.258 
-0.022 0.451 -0.125 
-0.122 0.043 -0.477 
0.423 0.031 0.46 
0.131 -0.131 -0.464 
-0.185 0.474 0.514 
0.512 0.239 -0.236 
0.044 -0.128 0.721 
-0.217 -0.128 0.384 
-0.337 -0.128 0.253 
0.393 0.243 0.576 
-0.208 0.208 -0.507 
-0.37 -0.129 -0.029 
0.196 0.066 -0.439 
-0.098 0.486 0.156 
-0.353 0.109 0.907 
0.366 -0.139 -0.874 
0.108 0.484 0.394 
-0.288 0.033 0.721 
0.184 0.141 0.943 
0.422 0.097 -0.17 
-0.414 0.144 0.161 
0.419 0 -0.451 
0.12 0.152 -0.887 
-0.152 0.311 -0.363 
0.129 -0.143 -0.978 
0.238 -0.13 0.927 
-0.087 -0.118 0.957 
-0.163 0.128 0.946 
0.276 -0.056 -0.703 
0.271 -0.069 0.536 
-0.357 0.32 -0.224 
0.41 -0.011 -0.617 
0.353 0.017 0.767 
-0.043 -0.128 0.417 
-0.348 0.339 0.09 
-0.133 0.019 -0.988 
0.239 -0.128 -0.345 
-0.163 -0.137 -0.573 
0.389 -0.11 0.679 
-0.394 -0.129 -0.527 
-0.425 0.062 -0.535 
-0.292 -0.036 0.508 
0.054 -0.11 -0.128 
-0.099 0.34 0.826 
0.238 0.405 -0.167 
-0.315 0.179 -0.735 
0.239 -0.128 0.199 
0.229 0.228 -0.603 
0.142 0.246 -0.333 
0.354 0.323 -0.018 
0.043 -0.149 -0.78 
0.413 -0.023 0.308 
-0.317 -0.132 0.874 
0.371 0.272 -0.319 
-0.267 0.054 -0.427 
0 0.191 -0.793 
0.139 -0.012 0.962 
-0.292 0.452 0.21 
0.409 0.172 0.155 
0.17 0.449 0.691 
0.388 0.214 -0.475 
0.109 0.463 -0.061 
-0.174 0.457 -0.079 
-0.064 0.053 -0.257 
0.206 0.481 0.145 
0.348 0.177 0.904 
-0.408 0.183 0.297 
-0.272 -0.144 -0.671 
-0.427 0.074 -0.029 
-0.043 0.374 -0.265 
0.405 -0.126 -0.536 
-0.412 0.162 -0.171 
-0.356 0.316 0.395 
0.421 -0.001 -0.268 
-0.416 0.012 0.472 
0.379 0.261 0.257 
-0.26 -0.101 0.707 
0.341 0.319 0.76 
-0.382 0.224 0.838 
0.196 -0.137 -0.616 
-0.362 -0.241 -0.704 
0.319 -0.22 0.6 
-0.358 -0.057 -0.898 
-0.264 0.038 -0.954 
0.076 0.237 -0.616 
-0.405 0.211 0.558 
0.238 0.335 -0.302 
-0.389 -0.142 0.676 
-0.274 0.445 0.627 
0.011 -0.128 -0.388 
0.257 -0.111 -0.946 
0.382 0.127 -0.746 
-0.052 0.478 0.51 
0.163 -0.128 -0.029 
-0.174 0.484 0.275 
-0.022 -0.135 -0.519 
-0.25 -0.128 -0.345 
-0.109 -0.128 0.112 
-0.271 -0.132 -0.482 
-0.414 -0.04 -0.276 
-0.116 0.25 0.928 
-0.289 -0.014 -0.713 
0.329 0.064 -0.538 
-0.142 -0.156 -0.867 
0.098 -0.128 -0.269 
0 0.461 0.665 
-0.239 -0.128 -0.04 
0.112 0.291 0.884 
0.413 0.165 0.475 
0.329 -0.205 0.782 
-0.202 0.183 -0.798 
0.419 -0.011 0.003 
-0.298 0.169 -0.291 
0.337 -0.128 -0.203 
-0.391 -0.078 -0.657 
0.065 0.116 -0.27 
0.076 0.482 0.08 
-0.376 -0.03 -0.449 
-0.163 -0.128 -0.236 
0.011 0.307 -0.383 
0.187 0.366 0.784 
0.275 0.193 -0.714 
-0.403 -0.11 -0.16 
0.052 -0.061 -0.921 
0.358 -0.017 -0.902 
0.125 0.25 -0.493 
-0.395 0.196 -0.432 
0.276 -0.08 0.819 
0.304 -0.128 -0.084 
-0.076 -0.128 0.688 
0.135 0.033 -0.917 
0.316 0.055 -0.669 
-0.095 -0.022 -0.365 
0.398 -0.126 0.221 
0.304 0.086 -0.361 
0.152 -0.128 0.406 
-0.251 -0.153 -0.805 
-0.217 -0.128 0.232 
-0.416 0.075 0.763 
-0.087 0.477 0.025 
-0.411 -0.142 0.546 
0.331 0.377 0.536 
-0.022 -0.026 -0.169 
0.323 -0.091 -0.422 
0.39 -0.111 -0.76 
-0.399 0.237 -0.298 
0.388 0.237 0.058 
-0.297 0.038 0.603 
0.333 -0.274 -0.632 
-0.206 -0.144 0.916 
-0.402 -0.12 0.134 
-0.004 -0.08 -0.029 
0.391 0.23 -0.08 
-0.083 0.226 -0.42 
0.174 -0.128 0.59 
-0.022 -0.128 0.819 
0.098 -0.128 0.177 
0.306 0.417 0.369 
0.425 0.135 0.639 
0.071 0.121 0.952 
0.01 0.14 -0.921 
-0.358 -0.222 -0.47 
0.391 -0.129 -0.008 
-0.315 0.053 -0.324 
0.4 0.218 0.366 
-0.213 0.333 0.817 
-0.238 0.131 -0.892 
-0.141 -0.128 0.482 
0.21 0.467 0.583 
-0.25 0.219 -0.639 
0.306 0.431 0.176 
-0.098 0.249 -0.554 
0.405 -0.075 0.427 
0.391 0.079 0.854 
0.141 -0.145 -0.715 
-0.121 -0.089 -0.954 
0.131 -0.128 0.797 
-0.065 -0.14 -0.627 
0.409 -0.056 0.58 
0.405 0.202 -0.203 
-0.011 0.22 -0.683 
0.112 -0.001 -0.464 
-0.348 0.072 -0.616 
-0.371 0 0.915 
0.405 -0.12 -0.649 
-0.403 0.017 -0.826 
-0.288 0.45 0.471 
-0.405 -0.263 0.635 
-0.033 -0.128 0.536 
0.004 0.315 0.863 
0.163 -0.128 0.09 
-0.405 -0.075 0.329 
-0.131 0.194 -0.299 
-0.134 0.025 0.96 
-0.279 -0.045 0.796 
-0.314 -0.155 -0.897 
-0.321 0.239 -0.496 
-0.424 0.108 0.58 
-0.391 0.235 0.113 
0.283 -0.128 0.449 
-0.426 0.064 -0.258 
0.423 0.099 -0.504 
-0.043 0.013 -0.922 
0.243 0.221 -0.324 
-0.313 0.305 0.814 
0.425 0.071 0.138 
0.317 0.014 -0.439 
0.175 -0.05 -0.972 
-0.255 0.082 0.926 
-0.408 -0.164 0.775 
-0.217 -0.023 -0.475 
0.32 -0.166 -0.696 
-0.207 0.224 -0.366 
-0.378 0.26 0.742 
0.423 0.064 0.558 
0.34 -0.056 0.915 
0.207 0.109 -0.921 
0.428 0.064 -0.073 
0.086 -0.153 -0.873 
-0.011 -0.128 0.308 
0.337 0.009 0.523 
0.411 0.02 0.666 
-0.423 0.042 0.177 
-0.058 0.416 0.736 
0.362 0.253 0.835 
0.319 0.396 0.076 
-0.414 -0.04 -0.047 
-0.396 -0.178 -0.632 
0.319 0.228 -0.558 
0.217 0.479 0.362 
0.284 0.022 0.688 
-0.065 0.152 0.953 
0.163 0.096 -0.325 
-0.376 0.269 0.482 
-0.409 -0.055 0.21 
0.348 -0.128 0.134 
-0.054 -0.15 -0.802 
0.228 -0.109 -0.469 
-0.315 -0.128 0.351 
-0.087 -0.128 0.014 
-0.255 0.422 -0.131 
0 -0.064 0.962 
-0.261 -0.128 0.482 
0.364 0.095 -0.841 
-0.119 0.47 0.59 
0.033 0.489 0.329 
0.141 0.486 0.297 
0.342 0.354 0.229 
-0.098 0.197 -0.775 
-0.383 0.255 -0.149 
0.19 0.239 0.928 
0.409 -0.219 -0.573 
-0.395 -0.037 -0.565 
0.317 0.406 -0.058 
-0.409 -0.034 0.71 
-0.426 0.085 0.069 
-0.36 0.318 0.633 
-0.184 0.481 0.384 
0.196 -0.128 0.308 
0.293 -0.152 -0.79 
0.104 -0.076 -0.387 
0.141 0.416 -0.178 
0.267 -0.065 0.634 
0 0.488 0.155 
-0.27 -0.055 0.612 
0.402 -0.12 0.34 
-0.326 -0.128 -0.279 
-0.011 -0.128 0.166 
-0.26 -0.114 -0.577 
0.399 -0.157 -0.445 
-0.168 0.068 -0.912 
-0.011 0.205 -0.579 
0.238 -0.036 0.948 
-0.227 0.333 -0.308 
-0.011 -0.043 -0.992 
-0.239 -0.128 0.819 
0.401 0.23 0.67 
0.334 0.228 -0.394 
0.404 -0.197 0.634 
0.43 0.038 -0.695 
0.033 0.475 -0.007 
0.284 -0.067 -0.868 
0.423 0.042 0.243 
0.054 0.481 0.481 
-0.304 0.435 0.003 
0.407 -0.023 0.86 
0.421 0.075 0.373 
-0.414 0.158 -0.073 
-0.4 0.131 -0.681 
0.06 -0.055 -0.225 
0.207 -0.128 0.503 
0.141 -0.128 0.677 
0.411 -0.055 0.754 
-0.394 0.232 0.22 
-0.076 0.095 -0.952 
-0.421 0.054 0.373 
-0.423 0.077 0.666 
0.34 0.155 -0.303 
0.152 0.475 0.503 
0.289 -0.139 -0.573 
0.087 0.241 -0.41 
0.41 -0.175 0.753 
0.319 -0.143 0.886 
-0.163 0.051 -0.377 
-0.329 0.374 0.329 
0.415 0.038 -0.359 
0.333 0.333 -0.258 
-0.359 0.057 -0.472 
-0.324 -0.132 0.766 
-0.249 0.255 -0.44 
-0.174 -0.128 0.699 
0.231 0.053 0.96 
0.195 0.451 -0.102 
-0.324 -0.12 0.55 
0.054 -0.128 0.438 
-0.405 0.055 0.85 
0.284 0.067 -0.871 
-0.087 0.488 0.253 
-0.292 0.156 -0.821 
0.092 0.324 -0.349 
0.337 0.001 -0.737 
-0.184 0.482 0.134 
-0.278 0.172 0.93 
-0.401 0.218 0.384 
-0.098 0.426 -0.165 
-0.417 -0.044 -0.763 
0.087 0.185 -0.81 
-0.357 0.015 0.538 
0.117 0.065 -0.398 
-0.406 -0.002 -0.356 
-0.354 0.323 0.003 
0.322 -0.012 -0.603 
-0.187 0.39 0.754 
-0.13 0.362 -0.276 
0.383 0.253 0.489 
-0.044 -0.143 -0.715 
-0.065 -0.126 -0.345 
-0.12 -0.128 0.373 
0.218 -0.128 -0.258 
0.417 0.075 0.752 
-0.174 0.472 0.015 
0.403 -0.091 -0.247 
-0.151 0.259 -0.464 
0.054 0.416 -0.189 
0.228 -0.148 -0.715 
0.087 0.461 0.655 
0.318 -0.23 0.7 
0.137 -0.104 0.951 
-0.41 -0.056 0.526 
0.328 -0.195 0.518 
0.022 0.022 -0.263 
-0.011 -0.129 0.906 
0.296 0.197 -0.479 
0.216 0.19 -0.778 
-0.419 0.117 -0.464 
0.268 0.193 0.93 
0.321 0.388 0.449 
-0.185 -0.132 -0.477 
-0.319 -0.23 0.689 
0.34 0.352 0.315 
-0.403 0.139 0.818 
-0.288 -0.08 -0.767 
-0.315 -0.098 -0.417 
-0.403 -0.104 0.864 
-0.303 0.433 0.123 
-0.098 -0.128 0.873 
-0.317 -0.24 -0.627 
0.196 -0.159 -0.91 
-0.283 -0.128 0.177 
-0.217 -0.128 -0.138 
-0.294 -0.128 0.025 
-0.043 -0.128 -0.138 
-0.022 -0.128 0.623 
0.39 -0.256 0.572 
0.422 0.275 -0.242 
-0.37 0.131 -0.776 
0.224 0.196 -0.525 
0.402 0.073 -0.618 
0.131 -0.136 -0.563 
-0.341 0.366 0.187 
0.119 0.195 0.948 
0.283 -0.153 -0.877 
0.174 0.477 0.058 
-0.313 0.381 -0.186 
-0.174 -0.14 -0.659 
0.079 0.195 -0.31 
0.324 -0.12 0.763 
-0.071 0.137 -0.29 
0.318 0.203 -0.638 
-0.314 -0.064 0.923 
0.163 0.291 -0.4 
-0.357 0.007 0.78 
0.423 0.01 -0.149 
0.274 -0.04 0.743 
0.272 0.366 0.763 
-0.259 0.404 0.717 
0.184 0.37 -0.251 
0.381 -0.044 -0.386 
0.417 0.128 -0.247 
0.315 -0.128 -0.312 
0.42 0.15 0.558 
-0.033 0.484 0.427 
0.363 0.312 0.612 
-0.162 -0.16 -0.951 
-0.308 0.323 -0.293 
0.322 -0.176 -0.504 
0.403 -0.099 0.069 
-0.387 0.163 -0.334 
0.408 -0.045 -0.692 
0.37 -0.077 0.501 
0.408 0.206 -0.288 
-0.038 -0.072 -0.921 
-0.337 0.07 0.667 
-0.207 0.204 -0.72 
-0.275 -0.064 -0.639 
-0.345 0.033 -0.909 
-0.076 0.33 -0.341 
0.397 0.154 -0.418 
0.402 0.029 -0.538 
-0.398 0.237 0.646 
-0.41 -0.033 0.406 
0.097 0.097 -0.949 
-0.293 0.014 -0.492 
-0.011 0.473 0.579 
0.12 -0.128 -0.171 
0.315 -0.077 -0.77 
0.25 -0.012 -0.475 
0.301 0.29 -0.355 
-0.205 0.206 0.939 
0.066 0.213 -0.706 
0.268 -0.079 -0.627 
0.322 0.377 -0.188 
-0.396 0.182 -0.518 
-0.42 0.107 0.232 
-0.126 -0.065 -0.469 
-0.369 0.287 -0.078 
-0.381 -0.129 0.058 
0.394 -0.076 -0.834 
0.317 -0.011 0.601 
0.203 0.16 -0.85 
-0.261 0.236 -0.562 
-0.163 -0.128 -0.008 
-0.141 -0.128 -0.16 
0.054 -0.134 -0.498 
-0.076 -0.056 -0.296 
-0.324 0.391 0.6 
0.185 0.484 0.221 
0.326 -0.128 0.253 
0.13 0.208 -0.567 
0.087 -0.022 -0.98 
-0.217 -0.158 -0.888 
0.033 -0.126 -0.203 
-0.352 -0.177 0.504 
0.033 -0.125 -0.312 
0.033 -0.128 0.232 
0.163 -0.128 0.221 
0.293 0.434 0.572 
0.348 -0.129 0.406 
-0.12 0.062 -0.312 
-0.411 0.02 -0.616 
-0.207 0.055 -0.477 
-0.321 -0.216 0.773 
-0.44 0.266 -0.235 
-0.087 0.46 -0.083 
0.404 -0.079 -0.452 
0.056 0.429 0.719 
0.163 0.228 -0.644 
-0.188 0.288 0.899 
0.116 0.341 0.824 
-0.338 0.192 -0.662 
-0.412 -0.229 -0.53 
-0.016 0.226 -0.377 
-0.411 -0.099 -0.454 
-0.421 0.086 0.493 
0.421 0.17 0.079 
-0.043 -0.13 -0.443 
-0.098 -0.132 -0.508 
-0.351 0.331 -0.138 
0.043 -0.146 -0.944 
-0.25 -0.128 0.58 
-0.163 -0.128 0.166 
0.218 -0.128 -0.084 
0.218 -0.128 0.786 
0.087 -0.128 0.601 
0.228 -0.128 0.395 
-0.174 -0.128 -0.312 
-0.239 -0.128 -0.269 
0.087 -0.128 -0.04 
-0.409 -0.065 0.025 
-0.032 0.167 -0.864 
-0.41 0.173 -0.247 
-0.43 0.043 -0.432 
-0.333 0.367 0.449 
-0.011 0.484 0.08 
-0.331 0.229 0.895 
0.37 0.284 0.333 
-0.279 0.462 0.286 
-0.06 0.293 0.899 
-0.407 -0.164 -0.725 
0.296 0.122 0.927 
0.426 0.075 -0.432 
-0.25 0.464 0.558 
-0.398 -0.126 -0.254 
0.054 -0.128 0.797 
0.163 -0.128 -0.345 
-0.403 -0.218 0.547 
-0.098 -0.128 0.59 
0.316 0.165 -0.771 
-0.371 -0.13 -0.854 
0.044 -0.145 -0.704 
0.249 0.472 0.08 
0.413 -0.013 0.384 
0.245 0.448 0.661 
-0.402 -0.096 0.612 
0.012 -0.154 -0.862 
-0.336 0.037 -0.683 
-0.425 0.082 -0.116 
0.425 0.044 0.069 
0.392 0.243 0.173 
0.361 0.179 -0.695 
-0.244 0.455 -0.056 
-0.032 0.375 0.793 
-0.162 0.206 -0.566 
0.076 -0.051 0.962 
-0.318 -0.23 -0.551 
0.34 0.353 -0.119 
-0.076 0.229 -0.636 
-0.37 0.284 0.329 
-0.304 -0.088 -0.859 
-0.28 0.072 -0.867 
0.05 0.456 -0.108 
-0.054 0.03 -0.992 
-0.318 -0.055 -0.486 
0.022 0.343 -0.32 
-0.402 -0.178 0.614 
-0.305 -0.128 -0.073 
0.37 -0.129 -0.116 
0.224 0.406 0.726 
-0.37 0.226 -0.367 
0.33 -0.277 0.646 
0.414 -0.027 0.221 
-0.359 0.037 -0.55 
-0.412 -0.088 0.775 
0.322 -0.044 -0.486 
0.409 -0.218 -0.487 
-0.152 0.479 0.449 
0.184 0.479 0.426 
0.309 0.418 0.249 
0.342 -0.051 0.814 
0.39 -0.191 -0.637 
-0.054 0.225 0.954 
-0.348 -0.046 -0.738 
0.394 0.172 0.849 
0 0.493 -0.069 
-0.054 0.292 -0.411 
0.401 0.164 -0.525 
0.18 0.317 0.844 
0.272 0.069 -0.43 
-0.412 -0.175 -0.475 
0.284 -0.046 -0.938 
0.111 0.4 0.753 
-0.337 -0.128 -0.138 
-0.059 -0.077 -0.203 
0.416 0.149 0.373 
-0.129 0.008 -0.917 
0.344 0.336 0.691 
-0.199 -0.004 -0.974 
-0.01 0.107 0.956 
-0.412 0.124 -0.567 
0.322 -0.132 0.55 
-0.382 0.099 -0.3 
0.377 0.26 0.745 
-0.326 -0.165 -0.443 
0.421 0.009 0.786 
0.419 0.107 0.199 
0.149 -0.106 -0.92 
-0.322 -0.048 0.74 
0.06 0.009 -0.92 
-0.098 0.084 0.946 
0.313 0.227 -0.32 
0.404 -0.055 -0.54 
-0.168 -0.069 0.95 
-0.383 0.031 0.716 
-0.222 0.202 -0.301 
-0.37 0.051 -0.388 
-0.318 0 0.666 
-0.048 -0.013 -0.238 
-0.405 0.203 0.482 
0.127 0.057 0.965 
-0.239 -0.15 -0.736 
0.228 0.297 -0.374 
-0.37 -0.058 -0.385 
0.369 -0.176 -0.745 
-0.239 0.475 0.428 
-0.206 0.463 0.622 
-0.217 0.294 -0.381 
0.261 -0.144 -0.65 
0.265 0.445 -0.083 
-0.065 -0.154 -0.87 
-0.076 0.213 -0.705 
-0.307 0.22 -0.423 
-0.422 0.097 -0.192 
-0.109 -0.128 -0.279 
0.054 -0.128 0.351 
-0.065 -0.128 0.764 
0.12 0.486 0.167 
-0.207 -0.128 -0.399 
-0.141 0.486 0.21 
-0.174 -0.128 0.329 
0.119 0.475 0.014 
0.426 0.044 -0.214 
0.153 0.02 -0.983 
-0.37 0.041 0.613 
0.3 0.44 0.026 
0.152 -0.066 -0.472 
-0.422 0.154 0.079 
0.424 0.078 -0.298 
0.404 -0.12 0.612 
0.317 -0.24 -0.562 
-0.421 0.036 0.555 
0.401 0.125 -0.668 
-0.381 -0.129 0.199 
0.404 -0.274 -0.615 
-0.076 0.233 -0.488 
-0.289 0.019 -0.627 
-0.325 -0.273 0.635 
0.418 0.129 -0.095 
0.175 0.162 -0.299 
0.344 -0.237 -0.7 
0.272 -0.128 -0.149 
0.131 -0.128 0.471 
-0.087 -0.128 0.177 
0.049 0.238 -0.544 
-0.272 -0.128 0.275 
0.25 -0.128 -0.018 
-0.043 -0.128 0.09 
0.239 -0.128 0.612 
-0.043 0.409 -0.203 
-0.163 -0.152 -0.801 
-0.416 -0.032 -0.203 
-0.097 0.047 -0.396 
-0.419 0.15 0.525 
-0.401 -0.12 -0.595 
0.207 0.207 -0.712 
-0.062 0.467 0.626 
-0.416 0.171 0.613 
-0.319 0.396 0.058 
0.359 -0.155 0.818 
0.408 0.183 -0.138 
-0.326 -0.128 0.449 
0.391 -0.043 0.654 
0.387 0.032 0.902 
0.25 0.367 -0.237 
0.131 -0.138 -0.649 
0.401 0.205 -0.355 
0.366 0.293 -0.102 
-0.421 0.086 0.308 
-0.319 0.4 0.241 
0.311 0.254 0.878 
0.387 0.01 -0.848 
-0.419 0.095 -0.627 
-0.412 -0.251 -0.616 
-0.409 -0.208 0.71 
0.032 0.386 -0.244 
-0.317 -0.109 -0.715 
-0.242 0.477 0.166 
-0.094 -0.156 -0.968 
0.406 0.193 0.286 
0.043 0.045 0.983 
0.228 -0.135 -0.53 
0.353 0.323 0.503 
-0.009 0.092 -0.966 
0.337 0.07 -0.606 
0.421 0.054 0.308 
-0.25 0.049 -0.334 
-0.367 0.304 0.189 
-0.022 -0.128 0.025 
-0.138 -0.147 0.922 
0.337 -0.128 0.058 
0.283 -0.128 -0.247 
-0.174 -0.128 0.101 
-0.365 0.301 0.539 
-0.043 -0.128 -0.051 
-0.272 0.224 -0.356 
0.358 -0.253 0.747 
-0.087 0.482 0.091 
-0.326 0.056 0.934 
0.375 -0.152 -0.809 
-0.311 -0.155 -0.831 
-0.008 0.144 -0.271 
-0.083 -0.048 -0.989 
0.268 0.47 0.416 
0.153 0.183 -0.807 
0.174 0.243 -0.444 
0.25 -0.128 -0.41 
0.033 0.167 -0.858 
-0.285 -0.055 -0.929 
-0.317 -0.033 0.568 
-0.397 -0.078 -0.825 
-0.018 0.49 0.288 
0.098 -0.128 -0.334 
-0.396 0.222 -0.073 
-0.033 -0.128 0.232 
0.326 -0.128 -0.018 
-0.26 0.374 -0.222 
-0.398 -0.126 0.29 
0.4 0.003 0.554 
-0.277 -0.117 0.928 
-0.349 -0.172 0.812 
0.13 0.449 -0.121 
0.425 0.072 0.623 
0.398 -0.126 -0.182 
0.184 0.463 -0.04 
0.239 -0.128 0.862 
0.073 0.054 -0.287 
-0.411 -0.012 -0.508 
-0.171 0.136 -0.898 
0.19 0.25 -0.515 
-0.413 0.141 0.754 
-0.175 -0.082 -0.919 
-0.394 0.141 -0.399 
0.359 0.056 -0.464 
0.039 -0.042 -0.156 
0.412 0.177 0.704 
0.308 0.03 -0.933 
0.066 0.24 -0.473 
-0.12 0.477 0.503 
0.422 0.097 0.503 
-0.41 -0.023 -0.703 
-0.268 0.19 -0.514 
-0.244 0.028 0.961 
-0.227 0.479 0.318 
-0.076 0.224 -0.357 
-0.409 -0.065 -0.105 
0.287 -0.002 -0.67 
0.33 0.374 0.011 
0.348 -0.128 -0.377 
0.011 -0.125 -0.084 
-0.315 -0.128 0.123 
-0.196 -0.128 0.514 
0.315 -0.128 0.188 
0.131 -0.128 0.025 
-0.302 0.403 0.671 
0.076 -0.128 0.667 
0.022 0.487 0.395 
-0.131 0.467 -0.033 
-0.324 -0.056 -0.68 
-0.341 0.215 -0.311 
-0.098 0.484 0.405 
0.391 -0.129 0.471 
-0.011 -0.138 -0.66 
0.076 -0.118 0.957 
-0.252 0.181 -0.76 
-0.41 -0.044 0.275 
-0.323 -0.177 -0.685 
0.323 -0.099 -0.704 
0.353 0.106 0.906 
-0.409 0.041 -0.768 
0.25 0.476 0.189 
-0.134 0.305 0.865 
-0.153 0.175 -0.836 
0.294 0.026 -0.503 
0.381 -0.045 -0.765 
-0.001 0.28 0.916 
-0.129 0.409 0.738 
0.403 -0.099 0.133 
-0.394 0.224 -0.202 
0.278 0.147 -0.302 
0.323 -0.024 0.707 
0.269 0.12 -0.902 
0.402 0.209 0.224 
-0.359 -0.28 0.687 
-0.259 -0.11 0.645 
0.206 0.482 0.286 
0.079 0.258 0.925 
0.422 0.119 0.427 
0.357 0.095 -0.301 
0.303 0.409 -0.138 
-0.407 -0.099 -0.713 
0.25 0.218 -0.66 
0.349 -0.207 -0.456 
-0.423 0.01 -0.084 
0.401 -0.209 0.695 
-0.195 0.425 -0.147 
0.152 0.464 0.633 
0.087 -0.125 -0.421 
-0.022 -0.137 -0.584 
0.38 0.068 0.689 
-0.163 0.226 -0.41 
0.359 -0.129 -0.269 
-0.076 -0.128 0.329 
0.407 -0.196 0.569 
0.131 -0.128 -0.084 
0.044 -0.128 0.003 
-0.283 0.098 -0.298 
0.329 0.384 0.597 
0.282 0.397 0.708 
-0.301 0.067 -0.577 
0.179 0.334 -0.316 
-0.292 -0.01 0.942 
-0.242 0.296 0.856 
0.404 -0.077 -0.606 
0.377 0.053 -0.794 
-0.323 -0.184 -0.511 
0.261 0.242 -0.509 
-0.247 0.369 0.766 
-0.405 -0.083 -0.334 
-0.417 0.015 0.781 
-0.119 -0.033 0.964 
-0.296 0.436 -0.082 
-0.425 0.028 0.011 
0 0.278 -0.442 
-0.131 0.215 -0.514 
-0.318 0.22 -0.575 
0.396 0.222 0 
0.003 -0.049 -0.08 
-0.244 0.466 0.009 
-0.152 0.13 -0.286 
-0.401 -0.174 -0.566 
0.174 -0.147 -0.768 
0.392 0.221 -0.412 
0.039 0.489 0.27 
-0.228 -0.135 -0.53 
-0.135 0.402 -0.205 
-0.35 0.08 -0.801 
-0.392 -0.109 0.5 
0.32 -0.121 -0.482 
0.411 0.127 -0.571 
-0.297 -0.09 0.83 
0.09 -0.082 -0.98 
0.359 0.044 -0.888 
0.152 0.482 0.112 
-0.42 -0.022 -0.41 
0.319 -0.047 0.498 
0.463 0.217 -0.267 
-0.134 0.371 0.789 
0.366 0.001 -0.485 
-0.409 -0.065 0.112 
-0.087 -0.134 -0.573 
0.304 0.035 0.567 
0.207 0.052 -0.934 
0.324 -0.024 -0.544 
0.419 0.119 0.71 
-0.324 -0.162 -0.742 
-0.13 0.448 -0.12 
-0.131 0.108 -0.935 
0.122 0.056 -0.475 
0.142 -0.155 -0.845 
0.185 -0.128 0.145 
-0.25 -0.128 0.329 
0.373 0.207 -0.575 
-0.217 -0.128 0.036 
0.218 -0.128 0.253 
0.131 -0.128 0.873 
-0.398 0.204 0.786 
0.386 0.247 0.431 
-0.152 0.225 -0.345 
0.412 -0.12 0.775 
0.107 0.064 -0.333 
-0.163 -0.128 0.873 
0.178 -0.108 -0.97 
0.324 0.122 -0.874 
-0.252 -0.151 -0.94 
-0.222 0.091 -0.931 
0.423 0.01 -0.051 
0.334 0.233 -0.452 
0.323 -0.059 0.569 
-0.263 0.196 -0.706 
-0.054 0.137 -0.919 
-0.022 0.477 0.013 
0.406 -0.259 -0.531 
-0.393 -0.128 0.732 
0.278 0.462 0.136 
0.412 -0.047 -0.301 
0.377 -0.117 0.888 
-0.384 0.246 0.275 
0.293 0.038 -0.573 
0.37 0.285 0.031 
0.384 0.255 -0.196 
-0.412 0.174 0.02 
0.404 -0.083 -0.04 
0.184 -0.054 0.952 
0.335 0.038 0.667 
0.051 0.238 -0.336 
0.391 -0.274 0.627 
-0.206 0.233 -0.605 
-0.37 0.174 -0.706 
-0.119 -0.144 -0.684 
0.011 -0.103 -0.964 
0.344 0.345 0.069 
-0.391 0.157 -0.628 
0.403 0.072 -0.747 
-0.297 0.432 0.558 
-0.407 -0.229 -0.671 
-0.351 0.166 0.905 
0.043 0.203 -0.757 
-0.373 -0.069 0.897 
-0.077 -0.114 -0.922 
0.152 0.098 -0.931 
0.065 0.146 -0.906 
0.302 -0.011 0.938 
0.404 0.21 0.532 
0.27 0.271 -0.402 
0.403 -0.11 0.275 
-0.244 -0.039 -0.965 
0.371 0.286 0.684 
0.084 -0.073 -0.328 
-0.339 -0.04 0.806 
0.292 -0.026 0.805 
-0.326 0.382 0.003 
-0.051 0.454 0.689 
-0.209 0.426 0.703 
0.265 -0.076 0.699 
0.093 -0.111 -0.927 
-0.414 -0.008 0.333 
0.288 0.044 0.634 
0.194 0.001 0.962 
-0.4 -0.074 -0.514 
0.355 0.315 0.268 
-0.381 -0.143 -0.436 
-0.109 -0.022 -0.438 
0.347 0.059 -0.409 
0.414 0.154 0.246 
0.39 -0.181 -0.536 
0.058 0.323 0.85 
0.34 0.352 0.38 
0.131 -0.159 -0.921 
0.181 0.068 0.941 
0.419 -0.011 -0.203 
-0.038 0.489 0.226 
-0.455 0.229 -0.274 
-0.41 -0.044 0.471 
0.411 -0.022 0.47 
-0.403 -0.219 0.778 
-0.351 0.308 0.752 
0.288 0.329 0.801 
0.402 0.21 0.115 
-0.37 -0.269 0.592 
-0.269 -0.055 0.677 
-0.298 0.006 0.782 
0.166 0.41 0.731 
-0.359 0.008 -0.733 
-0.083 0.021 -0.311 
-0.022 0.236 -0.627 
0.239 0.106 -0.302 
0.074 0.198 -0.572 
-0.228 -0.098 -0.47 
0.379 0.269 0.126 
-0.345 0.291 -0.32 
-0.269 -0.079 -0.692 
-0.403 -0.11 0.373 
-0.076 0.023 0.966 
0.372 0.277 -0.043 
-0.418 0.139 0.33 
0.334 0.38 0.181 
-0.425 0.075 0.133 
-0.366 0.293 0.698 
-0.12 -0.128 -0.356 
0.109 -0.128 0.123 
-0.337 -0.128 -0.203 
-0.13 -0.128 0.536 
0.181 -0.133 -0.487 
-0.054 -0.128 0.471 
0.109 -0.128 0.362 
-0.381 -0.129 -0.084 
0.044 -0.128 -0.258 
0.411 -0.055 0.036 
-0.076 0.181 -0.833 
0.087 0.487 0.34 
0.408 0.01 0.612 
0.381 0.019 -0.678 
-0.281 0.306 -0.338 
-0.109 0.461 0.655 
0.259 0.244 0.911 
-0.272 -0.063 -0.515 
0.39 -0.077 0.811 
0.399 -0.222 0.779 
0.406 0.011 0.721 
0.298 0.44 0.308 
-0.109 -0.076 -0.408 
-0.195 0.483 0.199 
0.355 -0.049 -0.436 
-0.349 -0.266 -0.522 
-0.375 -0.001 -0.87 
0.239 -0.15 -0.779 
0.174 0.237 -0.584 
-0.368 0.263 0.802 
-0.304 0.052 -0.377 
0.399 0.01 -0.73 
0.323 -0.221 -0.639 
-0.071 -0.108 -0.98 
-0.076 -0.128 -0.214 
-0.385 -0.132 0.817 
-0.238 0.47 0.503 
-0.295 0.447 0.417 
-0.366 -0.274 -0.636 
-0.398 0.226 0.329 
-0.011 -0.146 -0.768 
0.087 -0.144 -0.747 
0.357 0.03 0.577 
-0.324 -0.109 -0.484 
0.093 0.021 -0.376 
0.407 -0.094 -0.4 
0.41 -0.153 -0.693 
0.12 0.109 -0.295 
-0.24 0.157 -0.837 
-0.359 -0.038 0.517 
0.269 -0.075 -0.48 
0.423 0.031 0.189 
-0.108 0.294 -0.403 
0 0.528 -0.027 
-0.025 0.095 -0.255 
0.228 -0.053 -0.961 
0.272 -0.128 0.297 
0.348 -0.129 0.308 
-0.272 -0.128 -0.116 
-0.318 -0.012 -0.926 
-0.424 0.064 0.613 
-0.239 -0.128 0.873 
0.022 -0.015 -0.223 
-0.163 -0.128 -0.084 
-0.239 -0.128 0.764 
-0.206 0.366 -0.254 
0.022 -0.128 0.482 
0.196 -0.128 0.047 
0.033 -0.128 0.558 
0.054 0.487 0.156 
0.42 0.118 -0.04 
0.427 0.064 -0.127 
0.422 0.01 0.112 
0.043 0.184 0.955 
-0.399 0.226 0.699 
-0.317 0.408 0.509 
0.326 -0.128 -0.149 
-0.022 -0.128 -0.203 
-0.376 0.269 0.427 
-0.131 -0.14 -0.617 
-0.119 0.486 0.297 
0.043 -0.054 -0.975 
-0.172 -0.051 -0.971 
-0.292 0.124 -0.884 
-0.206 -0.138 -0.616 
0.152 0.483 0.362 
-0.335 -0.098 0.502 
0.112 0.432 0.71 
0.022 -0.131 0.949 
0.196 -0.144 -0.67 
0.087 0.295 -0.403 
-0.313 0.41 -0.126 
-0.087 -0.144 -0.747 
0.389 -0.143 -0.585 
-0.304 -0.025 -0.443 
-0.141 0.482 0.102 
0.011 -0.126 -0.442 
-0.405 -0.083 -0.214 
-0.307 0.417 0.297 
-0.295 0.446 0.058 
0.108 -0.039 -0.426 
0.174 0.082 -0.376 
0.326 -0.099 -0.88 
-0.195 0.221 -0.669 
-0.066 0.208 -0.54 
-0.027 -0.077 -0.115 
-0.083 0.387 0.773 
-0.087 -0.052 -0.932 
-0.161 0.007 -0.476 
0.356 0.137 -0.808 
0.404 0.211 0.619 
0.41 0.183 -0.062 
-0.407 -0.034 0.764 
-0.424 0.028 -0.218 
-0.398 -0.065 0.668 
0.238 0.098 0.933 
0.26 -0.128 0.753 
-0.383 0.274 -0.232 
-0.362 0.235 -0.447 
0.264 0.171 -0.791 
-0.425 0.071 -0.312 
-0.307 0.056 -0.522 
0.196 -0.128 0.895 
0.217 0.472 0.514 
0.282 0.225 -0.606 
-0.421 0.011 0.221 
0.285 0.226 -0.434 
0.023 0.49 0.219 
0.022 0.185 -0.287 
0.189 0.422 -0.154 
-0.345 0.005 -0.492 
0.302 0.432 0.473 
0.348 -0.143 0.499 
0.43 0.069 -0.573 
0.323 -0.045 -0.681 
0.287 0.45 0.521 
-0.333 0.191 -0.46 
-0.306 0.024 0.547 
0.263 -0.12 0.67 
0.123 -0.147 0.924 
0.16 0.017 -0.476 
-0.42 0.119 0.699 
-0.431 0.044 -0.485 
0.294 -0.128 0.842 
0.331 0.029 0.719 
-0.379 0.261 0.068 
-0.408 0.183 0.232 
-0.273 0.335 0.797 
-0.352 0.051 -0.858 
0.367 0.217 -0.523 
-0.391 -0.129 -0.312 
-0.376 0.28 0.601 
0.283 -0.011 0.557 
0.267 0.471 0.351 
0.421 -0.011 -0.388 
-0.022 0.184 0.955 
-0.12 -0.159 -0.921 
0.272 -0.133 -0.498 
0.273 -0.1 0.494 
-0.206 0.061 0.948 
-0.31 0.41 0.362 
0.097 0.05 -0.972 
-0.396 0.087 -0.748 
0.285 -0.107 0.926 
0.353 0.224 0.878 
0.098 0.198 -0.758 
-0.214 0.121 0.939 
0.181 0.213 -0.323 
-0.272 -0.061 0.561 
-0.338 0.043 0.739 
0.011 0.432 -0.161 
-0.408 -0.001 0.86 
0.411 -0.012 -0.508 
-0.249 0.398 -0.178 
-0.403 0.211 0.069 
-0.12 0.236 -0.599 
-0.119 0.064 -0.959 
0.051 0.468 0.619 
-0.158 0.195 -0.774 
-0.177 0.054 -0.435 
-0.073 0.199 -0.305 
0.333 0.368 0.125 
0.413 0.025 0.833 
0.088 -0.143 -0.677 
0.413 0.051 -0.475 
-0.346 0.259 0.851 
-0.244 0.445 0.669 
-0.306 -0.028 -0.76 
0.347 -0.135 -0.428 
0.342 -0.264 0.586 
-0.162 0.341 -0.309 
0.174 0.203 -0.531 
0.363 0.041 -0.569 
0.4 -0.075 0.872 
0.424 0.111 -0.396 
0.413 0.175 0.029 
0.407 0.086 0.806 
0.197 -0.001 -0.972 
-0.34 0.142 -0.831 
0.141 0.314 -0.359 
-0.285 0.208 -0.467 
-0.2 0.25 -0.475 
-0.368 0.223 -0.507 
0.293 0.038 -0.627 
-0.319 0.35 -0.238 
0.13 0.344 -0.308 
-0.288 -0.135 -0.54 
0.262 -0.112 -0.724 
-0.402 0.191 -0.382 
0.24 0.07 -0.894 
0.281 0.344 -0.269 
-0.342 -0.019 -0.4 
-0.272 -0.048 0.738 
-0.386 0.108 0.868 
-0.12 0.205 -0.73 
-0.306 0.062 -0.646 
0.411 -0.055 0.09 
0.407 -0.065 0.253 
-0.278 -0.011 0.634 
-0.055 0.202 -0.749 
-0.335 -0.121 0.814 
-0.218 -0.145 -0.682 
-0.467 0.205 -0.232 
0.301 0.432 0.417 
-0.425 0.036 0.061 
-0.344 0.345 -0.04 
-0.298 0.215 -0.621 
0.176 -0.156 -0.956 
-0.361 -0.121 0.896 
0.399 0.215 0.732 
-0.166 0.328 0.833 
-0.38 0.053 -0.322 
0.404 0.168 -0.467 
0.259 -0.112 0.558 
0.322 0.388 0.286 
0.378 -0.194 0.515 
0.172 0.149 -0.888 
-0.386 -0.155 -0.808 
-0.365 -0.105 -0.408 
0 0.207 -0.734 
-0.323 -0.224 0.634 
-0.271 -0.062 -0.588 
-0.065 0.474 0.558 
0.413 0.154 -0.178 
0.408 -0.077 0.536 
-0.408 -0.153 -0.673 
0.007 0.434 0.712 
-0.337 0.359 0.264 
-0.38 -0.078 -0.771 
0.021 0.241 -0.604 
-0.331 -0.21 -0.725 
-0.259 0.475 0.243 
-0.405 -0.218 0.656 
-0.301 0.352 0.76 
0.223 0.249 -0.408 
0.468 0.26 -0.228 
-0.313 0.14 0.921 
0.118 0.109 0.951 
-0.163 0.248 -0.533 
-0.022 -0.11 0.96 
0.381 0.241 0.791 
-0.375 0.049 0.912 
-0.411 -0.24 0.591 
0.392 -0.124 0.73 
0.12 0.219 -0.688 
-0.356 -0.078 -0.854 
-0.324 -0.016 -0.624 
0.402 -0.045 0.707 
-0.239 0.245 -0.518 
0.337 0.36 0.639 
-0.356 0.316 0.493 
-0.37 0.026 -0.43 
-0.407 -0.092 -0.385 
-0.409 0.132 -0.519 
-0.043 0.267 -0.461 
-0.098 -0.071 -0.361 
0.423 0.021 -0.312 
-0.394 0.038 0.667 
-0.294 -0.128 -0.366 
0.408 -0.154 0.689 
-0.282 -0.154 -0.765 
-0.076 -0.128 -0.399 
0 -0.125 -0.16 
-0.162 -0.112 -0.964 
0.173 0.394 -0.21 
0.238 0.428 -0.124 
-0.283 -0.02 -0.656 
0.054 -0.125 -0.366 
0.019 0.033 -0.928 
-0.098 -0.152 -0.823 
0.185 -0.128 -0.388 
-0.196 -0.128 0.786 
0.196 -0.128 -0.301 
0.25 -0.128 0.09 
-0.033 -0.128 0.71 
0.421 0.086 0.264 
0.098 -0.128 0.71 
0.011 -0.128 0.862 
0.087 -0.15 -0.802 
0.184 -0.124 0.942 
0.12 -0.128 -0.225 
-0.315 -0.128 -0.018 
0.185 -0.128 -0.127 
-0.152 -0.128 0.286 
0.011 -0.128 0.775 
-0.043 0.488 0.177 
0.381 -0.03 0.523 
-0.185 -0.156 -0.845 
0.152 -0.128 0.286 
0.065 0.484 0.416 
-0.326 0.054 -0.421 
-0.268 0.092 -0.917 
-0.405 -0.266 0.702 
0.419 -0.011 -0.105 
0.13 0.47 0.59 
0.347 -0.275 0.691 
0.033 0.485 0.101 
-0.289 -0.143 -0.626 
0.033 0.475 0.558 
-0.379 0.262 0.014 
0.098 -0.052 -0.943 
0.26 -0.157 -0.929 
0.138 0.192 -0.313 
-0.408 -0.088 0.71 
0.412 0.163 -0.311 
-0.425 0.043 -0.377 
-0.326 0.031 -0.599 
-0.317 0.08 -0.898 
0.413 -0.052 -0.351 
-0.004 0.35 0.822 
-0.282 -0.129 -0.432 
-0.334 -0.26 0.724 
0.325 -0.157 -0.747 
0.306 -0.027 -0.76 
0.308 0.418 0.13 
-0.416 0.075 -0.671 
0.227 0.481 0.243 
-0.404 -0.091 -0.015 
0.324 -0.226 0.652 
-0.423 0.021 -0.279 
0.197 -0.106 -0.918 
0.36 0.319 0.565 
-0.408 0.028 -0.563 
0.376 0.28 0.199 
-0.408 -0.014 0.549 
0.395 0.223 -0.161 
-0.393 0.161 0.859 
-0.363 0.301 0.047 
0.408 0.183 0.406 
-0.401 -0.098 0.562 
0.397 0.021 -0.414 
-0.417 0.129 -0.323 
-0.178 0.169 -0.291 
0.25 0.058 -0.471 
0.049 0.116 -0.94 
-0.022 0.249 -0.565 
-0.043 -0.044 0.963 
0.371 0.064 -0.334 
-0.393 0.24 0.515 
-0.406 0.086 -0.415 
0.373 0.278 0.078 
0.011 -0.154 -0.91 
0.41 -0.164 -0.496 
0.403 0.211 0.478 
0 0.01 -0.993 
0.37 0.04 -0.629 
-0.417 0.14 -0.029 
0.305 -0.128 -0.399 
-0.406 -0.054 0.86 
0.334 -0.022 -0.403 
0.403 -0.247 -0.666 
0.177 0.069 -0.902 
-0.317 -0.175 0.536 
-0.235 -0.098 0.936 
-0.403 -0.229 -0.483 
-0.049 -0.04 -0.958 
-0.343 -0.22 0.533 
0.044 0.243 -0.432 
-0.324 -0.194 0.731 
0.405 0.139 0.807 
-0.403 0.16 -0.475 
-0.267 0.47 0.112 
-0.313 -0.118 -0.776 
0.263 -0.099 -0.573 
-0.322 -0.024 -0.544 
0.056 0.07 -0.247 
0.316 0.369 0.724 
-0.184 0.478 0.083 
0.349 -0.275 -0.545 
-0.217 -0.128 0.656 
0.348 -0.125 -0.774 
0.279 -0.024 -0.616 
0.323 -0.11 0.811 
0.196 0.115 -0.288 
0.119 0.244 -0.443 
0.08 0.062 0.96 
0.098 0.434 -0.15 
-0.058 -0.134 0.924 
-0.38 0.028 -0.669 
0.378 0.282 -0.254 
0.259 0.461 0.59 
0.225 0.258 -0.346 
0.409 0.029 -0.584 
-0.392 0.076 -0.595 
-0.376 0.269 0.373 
0.271 -0.054 0.58 
-0.173 0.001 0.965 
-0.207 0.052 -0.399 
-0.26 0.13 0.934 
0.261 -0.153 -0.823 
-0.055 -0.133 -0.487 
0.127 0.247 -0.388 
0.339 -0.231 0.546 
-0.131 -0.132 -0.54 
-0.174 -0.088 -0.471 
-0.348 -0.129 0.384 
0.359 -0.283 -0.595 
0.228 -0.128 0.34 
0.25 -0.128 -0.29 
0.196 -0.128 0.743 
0.286 -0.11 -0.91 
0.232 0.166 0.938 
-0.054 -0.128 0.851 
0.182 0.287 0.879 
-0.196 -0.151 -0.769 
-0.348 -0.128 0.09 
-0.415 0.148 -0.127 
-0.159 0.063 0.95 
-0.348 -0.128 0.155 
-0.109 -0.128 0.449 
-0.272 -0.128 -0.301 
0.239 -0.128 -0.203 
0.174 -0.128 -0.203 
-0.152 -0.128 -0.388 
-0.217 -0.128 0.297 
-0.13 -0.128 0.623 
-0.346 0.347 0.136 
-0.25 -0.055 -0.472 
0.163 -0.134 -0.53 
-0.325 0.222 -0.375 
-0.363 0.301 0.112 
-0.278 -0.011 0.71 
0.119 0.474 0.536 
0.409 -0.109 -0.486 
0.119 0.239 -0.601 
0.375 0.19 -0.316 
-0.342 0.343 0.677 
-0.202 0.228 -0.435 
-0.043 0.345 -0.313 
-0.054 0.486 0.123 
0.184 0.482 0.329 
0.011 0.217 -0.528 
0.409 -0.111 0.567 
-0.366 -0.18 -0.747 
0.119 0.398 -0.214 
0.423 0.086 0.666 
0.405 -0.075 0.351 
-0.483 0.27 -0.25 
0.138 0.266 0.911 
0.265 0.313 -0.333 
-0.109 0.291 0.909 
-0.195 0.462 -0.039 
-0.206 0.477 0.46 
-0.062 -0.055 -0.245 
0.011 0.152 0.954 
-0.263 -0.096 0.787 
-0.395 0.234 0.449 
-0.418 -0.021 -0.116 
0.417 0.021 0.504 
-0.39 0.06 -0.81 
-0.401 -0.021 0.659 
-0.054 0.435 -0.153 
-0.27 0.28 -0.388 
0.317 -0.033 0.754 
0.011 -0.088 -0.922 
-0.044 0.259 -0.511 
-0.397 -0.034 -0.836 
0.273 0.255 -0.345 
-0.382 0.136 -0.733 
0 -0.151 -0.812 
0.067 -0.044 -0.268 
0.163 0.061 -0.955 
-0.321 -0.077 0.786 
-0.399 0.227 0.601 
0.239 -0.157 -0.888 
-0.337 0.091 -0.301 
-0.42 0.107 -0.269 
0.214 0.182 -0.312 
0.322 -0.002 0.645 
-0.25 0.043 -0.477 
-0.415 0.006 -0.455 
0.255 0.238 -0.553 
-0.36 0.319 0.58 
-0.285 0.048 0.953 
0.076 0.345 -0.313 
0.389 -0.034 -0.855 
0.381 0.067 0.612 
0.065 0.223 -0.662 
0.321 0.063 -0.903 
-0.29 0.019 -0.541 
-0.403 -0.083 0.409 
0.407 -0.152 -0.742 
-0.223 0.477 0.107 
0.018 0.068 0.952 
-0.234 0.201 -0.544 
0.348 -0.128 -0.073 
-0.405 -0.083 -0.279 
-0.033 0.461 -0.083 
-0.422 0.086 0.188 
0.116 -0.086 -0.429 
0.409 -0.038 0.796 
0 0.402 -0.218 
-0.12 -0.128 0.677 
-0.011 0.236 -0.459 
0.141 -0.128 -0.279 
0.412 0.227 -0.24 
0.087 -0.134 -0.551 
-0.326 -0.128 0.297 
0.163 -0.128 0.547 
-0.283 -0.128 -0.258 
-0.351 0.307 -0.278 
0.174 0.47 0.557 
0.044 -0.128 0.308 
-0.022 -0.128 0.351 
-0.043 -0.128 -0.301 
0.261 -0.128 -0.062 
-0.421 0.097 0.449 
-0.098 -0.128 0.058 
-0.098 -0.128 0.808 
-0.141 -0.128 0.243 
0.094 0.224 -0.542 
-0.359 -0.129 0.34 
0.239 -0.128 0.438 
-0.261 -0.128 0.395 
0.272 -0.128 0.406 
-0.087 -0.131 -0.454 
0.421 0.012 0.275 
-0.022 -0.125 -0.356 
0.033 -0.128 0.677 
0.011 -0.128 0.427 
-0.033 -0.128 -0.095 
-0.13 -0.128 0.025 
0.076 0.475 0.004 
-0.422 0.043 0.329 
0.413 -0.039 -0.04 
0.406 -0.075 -0.16 
0.185 -0.134 -0.573 
-0.325 -0.274 -0.574 
-0.163 0.469 0.579 
-0.033 0.022 -0.263 
-0.174 -0.156 -0.899 
-0.163 0.194 0.944 
-0.185 -0.128 0.471 
0.076 0.488 0.297 
-0.407 0.193 0.112 
0.098 0.48 0.47 
0.056 -0.1 -0.172 
0.283 0.435 0.628 
0.152 -0.139 -0.606 
-0.284 0.237 -0.524 
-0.109 0.486 0.362 
-0.369 0.046 0.569 
-0.141 0.483 0.394 
0.421 0.065 0.416 
-0.32 -0.111 0.917 
-0.172 0.036 -0.975 
0.281 -0.016 -0.562 
0.022 -0.125 -0.04 
-0.294 0.025 -0.673 
0.141 0.174 -0.849 
0.404 -0.156 0.801 
0.036 0.289 0.893 
0.163 0.471 0.004 
0 0.363 -0.287 
0.431 0.057 -0.517 
0.354 0.094 -0.795 
0.37 0.056 0.73 
0.246 0.217 -0.475 
-0.338 -0.089 -0.753 
0.33 0.07 -0.855 
-0.261 0.224 -0.399 
0.206 0.478 0.101 
0.238 0.458 -0.039 
0.416 -0.011 0.177 
0.406 -0.066 -0.497 
0.393 0.129 0.859 
0.336 0.359 -0.037 
-0.41 -0.011 -0.792 
0.336 0.176 -0.734 
0.41 0.173 -0.236 
-0.37 0.185 -0.299 
-0.409 -0.089 0.819 
0.412 0.078 -0.704 
0.394 0.232 0.303 
0.39 -0.032 -0.46 
0.327 0.02 -0.539 
0.402 -0.12 0.177 
0.41 -0.065 0.481 
-0.281 0.348 -0.262 
-0.318 -0.077 0.546 
-0.111 0.255 -0.512 
-0.4 -0.216 -0.712 
-0.055 0.094 0.949 
0.388 0.164 -0.367 
0.122 -0.048 -0.988 
-0.314 0.017 -0.45 
0.395 -0.227 0.538 
-0.317 -0.001 0.601 
-0.162 0.29 -0.399 
-0.423 0.13 0.656 
-0.33 -0.263 -0.663 
0.386 0.171 -0.659 
0.336 0.234 -0.496 
0.022 -0.137 -0.584 
0.228 0.14 -0.879 
0.411 -0.241 0.667 
0.413 -0.004 0.427 
-0.294 0.169 -0.779 
0.362 0.3 0.373 
-0.396 0.222 -0.116 
0.359 0.058 -0.668 
-0.394 0.161 -0.585 
-0.315 0.056 -0.476 
-0.308 0.032 -0.933 
-0.381 0.06 -0.52 
-0.033 -0.153 -0.899 
0.394 -0.03 -0.575 
0.326 -0.055 -0.868 
0.426 0.044 -0.258 
-0.319 0.396 0.101 
0.317 -0.208 -0.682 
-0.109 -0.128 -0.127 
0.141 -0.128 0.177 
-0.26 -0.128 0.525 
0.36 -0.018 0.915 
-0.337 -0.128 0.199 
-0.356 0.316 0.297 
-0.12 -0.128 -0.236 
0.359 -0.129 -0.312 
-0.076 -0.128 0.373 
-0.174 -0.128 0.373 
-0.37 -0.129 0.014 
-0.294 -0.128 0.069 
-0.239 -0.128 -0.084 
-0.196 -0.128 -0.04 
-0.207 -0.128 -0.356 
0.305 -0.128 -0.356 
0.151 0.225 0.943 
-0.087 -0.128 -0.029 
-0.033 -0.128 -0.399 
0.354 0.323 -0.062 
0.041 -0.01 -0.977 
0.076 0.17 -0.856 
-0.232 0.162 0.938 
-0.418 -0.011 0.134 
0.141 0.373 -0.254 
-0.184 0.482 0.34 
-0.098 0.487 0.199 
-0.42 0.15 0.569 
0.412 -0.047 -0.258 
-0.204 0.149 -0.873 
-0.315 0.13 -0.286 
0.291 0.365 -0.225 
0.285 0.457 0.206 
-0.163 0.465 0.623 
0.282 -0.017 -0.519 
-0.163 0.055 -0.477 
-0.292 0.444 0.513 
-0.032 0.471 -0.028 
-0.408 -0.055 -0.475 
-0.184 -0.131 -0.52 
0.377 -0.003 0.798 
-0.402 -0.114 -0.795 
0.394 -0.099 -0.568 
-0.35 -0.131 -0.892 
-0.335 -0.152 -0.795 
-0.383 0.265 0.177 
0.34 -0.105 0.906 
0.195 0.461 0.633 
0.403 -0.249 0.745 
0.001 -0.144 -0.705 
0.424 0.087 -0.213 
-0.084 0.041 -0.951 
0.31 -0.154 -0.91 
-0.021 -0.092 -0.067 
0.163 0.217 -0.695 
-0.108 0.382 -0.244 
-0.206 0.473 0.047 
-0.347 0.036 -0.639 
0.185 0.198 -0.748 
-0.218 0.237 -0.563 
-0.407 -0.065 0.155 
-0.13 -0.023 -0.978 
0.43 0.064 -0.649 
0.353 -0.076 -0.39 
-0.322 -0.013 0.531 
-0.224 0.088 -0.888 
-0.418 -0.018 0.508 
-0.098 0.096 -0.298 
0.37 -0.023 -0.725 
0.074 0.225 0.951 
0.221 -0.141 -0.939 
0.38 0.056 -0.377 
-0.27 -0.146 0.897 
0.069 -0.147 -0.978 
0.294 0.038 0.738 
-0.411 -0.022 -0.66 
0.317 -0.164 0.786 
-0.292 -0.076 0.492 
0.262 -0.094 0.601 
-0.356 0.216 -0.547 
0.141 0.481 0.427 
0.406 -0.076 -0.742 
-0.153 0.09 -0.301 
0.415 -0.032 -0.149 
0.407 -0.269 -0.573 
0.129 -0.053 0.959 
-0.415 0.147 0.275 
0.243 0.466 0.551 
-0.124 0.054 -0.436 
-0.38 -0.193 -0.448 
0.27 -0.123 -0.769 
-0.317 -0.012 -0.681 
-0.423 -0.004 -0.749 
0.22 0.259 0.904 
0.394 0.17 -0.572 
-0.415 0.147 -0.214 
-0.408 0.006 0.74 
-0.163 0.415 -0.176 
-0.107 0.21 -0.568 
0.412 0.131 0.766 
