ply
format ascii 1.0
comment Created by CloudCompare v2.10.2 (Zephyrus)
comment Created 2022/8/26 17:13
obj_info Generated by CloudCompare!
element vertex 1622
property float x
property float y
property float z
end_header
-0.5546 -0.415102 0.132182 
0.54889 0.549732 0.00902779 
0.749837 0.307378 0.214634 
-0.729178 -0.126337 -0.294287 
-0.35819 0.299245 0.157692 
-0.0326589 0.165598 0.462351 
0.027719 -0.10353 0.13594 
0.153543 -0.188008 -0.0901941 
0.936741 0.441393 0.164463 
0.51285 0.194256 -0.234327 
0.370483 0.229006 0.610786 
0.0854154 0.351032 0.246818 
-0.493134 -0.274413 0.342892 
-0.751653 -0.431284 0.244686 
-0.207789 -0.459482 -0.4197 
-0.812868 -0.173144 0.109079 
0.779896 0.647905 0.324396 
0.210303 0.363244 0.0106759 
-0.696821 -0.515102 -0.222947 
-0.172293 -0.211853 0.132697 
-0.439423 -0.571689 -0.193309 
0.392483 -0.0363789 -0.053096 
-0.274759 0.0915258 -0.494277 
0.0333694 -0.241199 -0.369246 
-0.481557 -0.213375 -0.571744 
-0.243251 0.0405559 0.385497 
-0.351519 0.294561 -0.178975 
-0.634474 0.181193 -0.0865943 
0.780367 0.354492 -0.10874 
0.116207 0.269813 -0.378715 
0.498595 0.714718 0.435172 
-0.132565 -0.575081 -0.225614 
0.319886 0.0738206 0.169259 
-0.0216859 0.439831 -0.150766 
0.463499 0.305881 0.066077 
-0.522487 -0.0925957 0.276282 
0.398799 0.238601 0.358893 
-0.442691 0.0383353 -0.462175 
-0.114276 0.496533 0.42424 
-0.472224 -0.474321 -0.0217149 
-0.0837781 -0.352941 -0.148467 
0.0763758 -0.31108 -0.21296 
-0.682593 -0.00755034 0.113699 
0.462472 0.424151 -0.080661 
0.310289 -0.157054 -0.166324 
0.267936 0.392512 0.30555 
-0.214734 0.280958 -0.303914 
-0.515138 -0.516375 -0.516451 
0.601809 0.538783 0.662318 
-0.498961 0.199935 -0.195589 
-0.373286 -0.447175 -0.376143 
-0.820921 -0.358876 -0.101265 
-0.063363 0.324269 0.405458 
0.0754742 -0.0727403 -0.390642 
0.193715 0.413316 0.525294 
0.61583 0.697048 0.315733 
0.282331 0.434678 -0.124473 
0.800548 0.528293 0.496807 
-0.725878 -0.540149 0.085068 
-0.593364 -0.641781 -0.19561 
-0.646657 -0.470108 -0.380275 
0.48103 0.476468 0.501822 
-0.465617 -0.25654 0.182644 
0.272847 0.301719 -0.33342 
0.330463 0.499058 0.566601 
-0.718747 -0.302154 0.146235 
-0.195108 -0.32222 -0.0142025 
0.0188707 0.135854 -0.417222 
0.872224 0.582116 0.201928 
0.252602 0.202567 0.415126 
0.63034 0.213143 0.148908 
-0.617478 -0.337145 0.263236 
0.705732 0.12613 -0.0567274 
0.650109 0.267145 -0.177255 
-0.179394 -0.37673 -0.289026 
0.169531 0.0367588 0.197767 
-0.671392 -0.220618 -0.404422 
-0.0991404 0.503938 0.0969652 
0.702628 0.50419 -0.0945468 
-0.166424 -0.1143 0.273885 
0.312581 0.620708 0.292813 
0.140299 0.452158 0.14214 
-0.238087 0.388085 0.195213 
0.692918 0.383716 0.377857 
-0.378673 -0.0479961 0.335006 
-0.410221 -0.670098 -0.355741 
0.00595444 0.529504 0.31326 
0.492138 0.243504 -0.0715272 
0.586932 0.637512 0.172984 
-0.751584 -0.499214 -0.0653098 
-0.14682 0.167965 -0.459889 
-0.337553 0.188269 0.272255 
-0.744216 0.0181188 -0.204002 
0.141133 0.581142 0.397221 
-0.140506 0.449278 -0.0659523 
0.0155085 0.373972 -0.290535 
0.261367 0.201988 0.0514817 
-0.354339 0.370819 -0.048968 
-0.886384 -0.26171 0.0251722 
-0.0479859 -0.120576 -0.440865 
0.762469 0.233616 0.0884369 
0.256497 -0.0190355 -0.316375 
0.127599 0.456792 -0.0924881 
0.316956 0.362986 0.599964 
0.322951 0.134904 -0.311958 
-0.202828 -0.0615883 -0.491277 
0.0521717 0.306536 0.479931 
-0.109814 -0.354848 -0.405884 
-0.43723 0.18793 0.175874 
-0.322242 -0.532889 -0.281361 
-0.829323 -0.071854 -0.0154188 
-0.494087 -0.397052 -0.58084 
0.486209 0.341231 0.454767 
0.871475 0.153238 0.0724676 
-0.477667 -0.394875 0.28224 
0.944666 0.407316 0.0325235 
0.903046 0.539161 0.0759011 
0.394504 0.59121 0.166016 
-0.261809 -0.250447 -0.52041 
0.0330992 0.529339 0.167623 
-0.218123 -0.583038 -0.358349 
-0.474084 -0.0750837 -0.54982 
0.398297 0.162171 0.23913 
0.699785 0.570729 0.577294 
0.387953 0.671108 0.506911 
-0.506892 0.0818814 -0.353994 
0.0467218 -0.00330929 0.270695 
-0.268064 0.188309 -0.396179 
0.518321 0.22368 0.249614 
0.494041 0.0622116 0.0137169 
0.0724111 -0.163509 0.0108079 
0.611551 0.132941 0.0340829 
0.486347 0.0418716 -0.183585 
-0.70524 -0.353354 -0.399079 
0.750743 0.352064 0.0192587 
0.279333 0.48683 0.441448 
0.854099 0.375968 0.252143 
0.263679 0.117828 0.27965 
-0.645096 -0.00640518 -0.342905 
0.253678 -0.112286 -0.0564418 
-0.800469 -0.231103 -0.221351 
-0.583189 -0.00229786 0.196016 
-0.628848 -0.486608 0.235565 
0.693748 0.576361 0.0125345 
-0.151547 0.140507 0.413016 
0.356271 0.242845 -0.190782 
0.0948379 0.147984 0.458703 
0.783801 0.241498 -0.0464549 
0.18226 0.294497 0.128703 
-0.24049 0.372127 -0.139314 
0.596805 0.161152 -0.112562 
0.367126 0.023693 0.0568331 
0.218871 0.490071 0.0165574 
-0.790744 -0.0942923 -0.171973 
0.389495 0.671949 0.377197 
0.419818 -0.0757723 -0.169066 
0.761564 0.535351 0.377089 
0.578085 0.645575 0.600963 
0.270321 0.543516 0.167692 
0.501874 0.317666 -0.247533 
-0.681632 -0.428311 0.118868 
0.0194694 0.0691973 0.400718 
-0.387557 -0.489543 -0.111652 
0.679562 0.62833 0.396368 
0.390289 0.552558 0.469366 
0.390133 0.198961 0.0922257 
-0.262681 -0.0799562 0.397675 
0.146459 0.393287 0.36378 
-0.282914 -0.259843 0.148724 
0.858949 0.310851 0.145044 
0.0333027 -0.264405 -0.109003 
-0.35939 -0.476438 -0.513484 
-0.115627 0.353575 -0.256294 
-0.107125 -0.513631 -0.342656 
-0.675256 0.0998583 0.00502719 
0.204732 0.102707 0.103296 
0.255505 0.299665 0.48525 
0.490848 0.500563 0.638178 
0.384085 0.269646 -0.306464 
-0.278704 0.288174 0.247137 
-0.279968 -0.377224 -0.355437 
0.486186 0.285686 0.64107 
-0.492534 -0.671828 -0.269424 
0.196902 -0.254338 -0.23949 
0.109803 -0.014739 0.109192 
-0.171063 0.364093 0.28899 
0.326476 0.423043 -0.00979579 
-0.435505 -0.360704 0.119011 
-0.515124 -0.550348 -0.101337 
-0.0798604 -0.141956 0.163853 
-0.550422 0.220375 0.00751705 
-0.703329 -0.117194 0.178547 
-0.763989 -0.411762 -0.186187 
0.701174 0.676154 0.240368 
0.681589 0.0325366 0.005332 
-0.0816227 0.0491399 0.452911 
0.436903 0.168971 -0.137163 
-0.514202 0.0977664 0.186685 
-0.605348 -0.25342 -0.492105 
0.804916 0.581236 0.0338397 
-0.196789 -0.388209 -0.111525 
-0.688041 0.106196 -0.152283 
0.580444 0.497348 -0.0864617 
-0.407411 0.34344 0.0505049 
0.427814 0.51428 0.000982404 
-0.445397 -0.159152 0.323994 
-0.829547 -0.294772 0.123302 
0.59285 0.377026 0.439392 
0.883701 0.483624 0.257888 
-0.57372 -0.493618 0.0299692 
0.624758 0.270443 0.2449 
-0.572892 -0.232673 0.277889 
-0.0719305 0.418462 0.34666 
0.495929 0.592336 0.120643 
0.35571 0.332011 0.277169 
0.670446 0.344031 -0.0981037 
-0.468418 -0.609094 -0.477858 
0.401574 0.433369 0.62625 
0.881558 0.408738 -0.0607516 
-0.349028 0.0155665 -0.523353 
-0.129804 -0.655768 -0.299289 
-0.291707 -0.388664 -0.0368901 
-0.740656 -0.231618 -0.316762 
-0.0449401 -0.0726238 0.239798 
0.0300179 -0.334559 -0.315472 
0.269888 0.31445 -0.0643359 
-0.630187 -0.548269 -0.307711 
-0.404017 -0.547596 -0.348551 
0.961726 0.344835 0.118233 
0.497279 0.408885 -0.192045 
-0.227801 -0.347045 -0.489324 
0.0643617 0.0310243 -0.405589 
-0.380715 -0.247289 0.245095 
0.436431 0.107033 -0.251011 
0.192606 0.520623 0.491979 
0.779372 0.564942 0.261723 
0.093589 0.456893 0.235429 
-0.542361 -0.301669 -0.559171 
-0.291593 0.125955 0.341179 
0.229182 0.387696 0.431327 
0.735678 0.608727 0.485703 
-0.567261 -0.519847 -0.427204 
-0.276119 -0.662888 -0.388459 
0.535503 0.227256 0.0211471 
0.498311 0.401366 0.592078 
0.346912 0.354477 -0.124587 
-0.436646 -0.312609 -0.570944 
-0.611293 -0.124582 0.234052 
-0.796864 -0.447607 0.134271 
0.616419 0.709123 0.41785 
-0.127722 0.244395 0.401985 
0.744937 0.447186 0.439335 
-0.126948 -0.249546 0.0403656 
-0.519673 -0.170706 0.200521 
-0.670798 -0.224395 0.218543 
0.108763 -0.162213 -0.350299 
-0.652986 -0.0986302 -0.386059 
-0.870823 -0.159704 0.0159198 
-0.322676 0.378802 0.104943 
0.309956 -0.0915151 -0.243041 
0.807375 0.149452 -0.00618243 
0.233482 0.620329 0.355009 
-0.526112 0.246058 -0.0952615 
-0.625846 -0.272141 0.107562 
-0.710122 -0.427805 -0.313855 
0.184311 0.339452 0.233603 
-0.240996 -0.153747 -0.506375 
0.115582 -0.251183 -0.298033 
-0.170174 -0.0451531 0.380237 
0.75816 0.367929 0.304452 
0.345878 0.286085 0.428626 
-0.00997277 -0.361847 -0.220345 
0.137035 -0.100112 0.0543113 
0.109682 0.354394 -0.325721 
-0.661966 -0.578656 -0.15296 
-0.13754 -0.422652 -0.21003 
0.482931 0.696941 0.533078 
-0.532204 0.00996887 -0.425694 
-0.413881 0.220072 -0.242822 
-0.441345 0.267428 -0.144333 
-0.434931 0.264344 0.105464 
0.619032 0.603462 0.0848126 
0.25415 0.201139 -0.341171 
-0.851884 -0.273889 -0.142295 
0.381017 0.314961 0.660161 
0.698363 0.217942 -0.0944804 
-0.222509 0.463884 0.133006 
-0.278028 -0.526451 -0.438532 
0.176077 -0.0674657 -0.346594 
-0.384984 -0.199844 -0.557371 
-0.345875 0.119667 -0.431162 
-0.229152 -0.190131 0.210287 
0.578397 0.459016 0.587198 
0.33062 0.227828 0.288761 
-0.0472145 0.49087 0.0146007 
-0.540743 -0.311729 0.151882 
-0.263157 0.31119 -0.224226 
-0.262695 -0.445442 -0.288303 
-0.35874 -0.14356 0.36701 
0.480727 0.00195438 -0.0658056 
-0.0175699 -0.166834 0.0772336 
0.67203 0.205122 0.0586216 
0.262336 0.284684 0.587181 
0.811187 0.565066 0.12854 
0.421875 0.520352 0.101271 
-0.779994 -0.480896 0.0318001 
0.268117 0.397846 -0.211509 
0.840093 0.572313 0.334652 
-0.407983 -0.612632 -0.279467 
-0.753701 -0.0698931 0.102473 
0.0997521 0.529108 0.324742 
-0.555108 -0.372791 0.331488 
0.360892 0.587495 0.578344 
-0.14942 0.405136 -0.148463 
0.608614 0.566507 0.556824 
-0.359779 0.0421667 0.327027 
-0.538101 0.131479 -0.260978 
0.0254122 0.272165 -0.407348 
-0.800899 -0.371244 0.186763 
-0.472245 -0.00903302 0.274847 
0.250066 0.0742056 -0.337009 
0.722375 0.411835 -0.153925 
0.219085 0.136808 0.199899 
-0.384786 -0.300557 0.168688 
-0.486225 -0.420851 0.069334 
-0.70831 -0.332689 0.233846 
-0.0153649 -0.034443 -0.434306 
0.785676 0.635305 0.200712 
-0.0480409 -0.266678 -0.405649 
-0.282025 -0.420426 -0.495063 
0.0561594 0.42231 0.343174 
-0.601012 0.14223 -0.183192 
0.407977 0.341357 0.520961 
0.228783 0.477419 0.119527 
-0.658612 -0.423652 0.294325 
-0.729043 -0.502905 0.168817 
0.403487 0.241949 0.00238827 
-0.188731 0.0287129 -0.481481 
0.109487 0.387478 0.478794 
-0.0468906 0.529456 0.2352 
0.571013 0.24559 -0.13689 
-0.323576 -0.6092 -0.333446 
0.412137 0.4091 -0.15562 
-0.347643 -0.524078 -0.194954 
-0.821703 -0.422211 -0.0223339 
-0.146543 0.488718 0.0213921 
-0.162041 -0.474259 -0.28347 
-0.259176 -0.306611 0.0599702 
-0.423762 -0.539166 -0.516869 
0.55684 0.670159 0.48944 
-0.295688 0.229136 -0.321086 
0.766798 0.543393 -0.0416386 
0.145828 0.506444 0.0655733 
0.454094 0.557128 0.531729 
-0.153712 0.266047 -0.366763 
-0.595312 -0.460335 -0.492904 
-0.132582 -0.142625 -0.475511 
0.0567395 0.422303 -0.190051 
0.864564 0.321634 -0.0575715 
0.559493 0.667822 0.251866 
-0.190993 -0.374076 -0.376114 
0.275764 0.345195 0.230565 
0.528681 0.119664 -0.175577 
0.0953044 0.172639 -0.39142 
0.363532 0.464885 0.491237 
-0.592664 -0.165914 -0.4834 
0.183871 0.429102 -0.154944 
-0.614679 0.0478596 0.122991 
0.683384 0.325447 0.286512 
0.401892 0.116832 0.164562 
-0.123198 -0.318692 -0.0659861 
0.195958 0.145864 0.375299 
-0.762202 -0.230939 0.173162 
-0.0629511 0.330627 -0.322571 
0.081209 0.220694 0.505484 
0.380622 0.45425 -0.0709779 
0.0042138 0.472306 -0.0539596 
0.551105 0.399715 0.512334 
-0.680349 0.0243907 -0.268892 
-0.550164 -0.461014 0.260543 
-0.704991 -0.563346 -0.0172973 
-0.126925 -0.436293 -0.380389 
-0.42904 -0.325517 0.298201 
0.236039 0.206592 0.139404 
-0.587165 -0.598626 -0.114387 
0.196499 0.544137 0.331386 
0.469134 0.690011 0.346908 
0.570258 0.269338 -0.218741 
-0.87337 -0.287649 -0.0553872 
-0.607745 0.156029 0.0138111 
0.565238 0.154713 0.10338 
-0.227179 -0.637442 -0.2595 
-0.499379 0.212156 0.082511 
-0.434005 -0.456071 -0.549648 
0.818483 0.333612 0.0676725 
0.569485 0.108308 -0.0362068 
-0.371358 -0.667664 -0.437983 
-0.0667066 0.201034 -0.436666 
-0.519194 -0.603615 -0.177744 
0.789542 0.122064 0.0889066 
0.721547 0.495748 0.54229 
0.108254 -0.251312 -0.148901 
0.318302 -0.0488889 -0.0129384 
0.230766 -0.165933 -0.118466 
0.232391 0.00105339 0.129894 
-0.364151 -0.436182 -0.0504486 
-0.476625 -0.385564 0.366104 
-0.0797478 0.501573 0.333607 
0.780738 0.475781 -0.104634 
0.267884 0.549504 0.284735 
0.301279 0.561225 0.517564 
0.477074 0.292464 0.38714 
-0.0701992 0.101896 -0.450394 
-0.814475 -0.339379 -0.183389 
0.650751 0.50606 0.602086 
-0.269912 0.409267 -0.0506132 
0.197232 0.338603 -0.338197 
0.703224 0.257797 0.163733 
0.174273 0.381893 0.110396 
-0.646052 -0.412335 0.193157 
0.256338 0.283082 0.0115746 
0.305688 0.647628 0.387675 
-0.476892 -0.646065 -0.40059 
0.163375 0.531433 0.153883 
-0.374169 -0.521119 -0.434876 
-0.0449175 0.246161 0.445081 
-0.638249 -0.354197 0.116611 
-0.816536 -0.0576633 -0.0967459 
-0.534266 -0.154381 -0.540018 
0.00635078 0.51075 0.0922507 
0.180169 0.331086 0.499606 
-0.0140958 0.391259 0.405576 
0.189659 0.205159 0.468944 
-0.644523 -0.0600414 0.187843 
-0.454762 0.140243 -0.3199 
-0.72336 0.0153434 0.0446271 
0.93029 0.416114 0.25957 
0.300592 0.358255 -0.276808 
0.353469 0.2825 0.548957 
-0.158967 0.0305482 0.427509 
0.435757 0.237784 -0.249624 
0.402943 0.516313 0.601726 
-0.484309 -0.213822 0.277068 
-0.00955341 0.471875 0.369156 
0.81044 0.501154 0.308806 
-0.322432 -0.401648 -0.421167 
0.627659 0.545463 -0.0225035 
0.707012 0.274955 0.0369719 
0.910395 0.485898 0.000269964 
0.220192 0.458127 -0.0774631 
0.117001 0.504894 0.42033 
0.257417 0.481166 0.519175 
-0.343542 -0.279923 -0.550737 
-0.0437761 -0.348905 -0.360933 
0.697141 0.684733 0.340927 
0.571187 0.243482 -0.0556468 
-0.578266 0.0496562 -0.33571 
0.177331 0.0670601 0.272265 
0.521858 0.510717 0.561914 
0.300486 0.369662 0.398901 
0.0609807 0.54407 0.255989 
-0.652011 -0.418767 -0.452611 
0.478452 0.622511 0.193383 
0.435722 0.412412 0.487222 
-0.113137 0.518987 0.185614 
0.574262 0.356825 -0.218904 
0.0386814 -0.143956 -0.39518 
0.502903 0.21794 0.115653 
0.179633 0.188137 -0.36439 
0.248706 -0.210886 -0.197942 
0.531746 0.571431 0.642871 
-0.561807 -0.23709 0.174025 
0.543121 0.705404 0.37019 
0.519703 0.462268 -0.124131 
0.191505 -0.109111 -0.00236341 
0.297724 -0.0142606 0.0551602 
0.464217 0.234023 0.306039 
0.341327 0.138368 0.107203 
-0.406804 -0.114774 -0.556385 
-0.403722 0.322804 -0.0874646 
-0.250973 -0.120782 0.331281 
0.341804 0.556114 0.212373 
0.773988 0.609422 0.4013 
0.908112 0.365153 0.197047 
0.244127 0.0622491 0.20814 
-0.0897782 -0.49885 -0.265516 
0.327683 0.126499 0.235931 
-0.0901321 -0.192648 0.0962163 
-0.145845 -0.148928 0.205786 
-0.707229 0.11133 -0.0645075 
-0.379283 -0.204347 0.310125 
0.327748 0.224796 0.0152143 
0.72254 0.286403 -0.123368 
0.500623 0.290609 -0.00980165 
-0.296545 -0.676297 -0.290072 
0.344096 0.243236 -0.371228 
-0.0255766 0.403554 -0.219606 
0.233777 0.349514 0.553426 
-0.701424 -0.046121 -0.294678 
0.376749 0.625646 0.24928 
-0.66269 -0.328229 -0.469983 
-0.776409 -0.156982 -0.227923 
0.652507 0.464954 -0.138993 
0.757292 0.0466623 -0.0198566 
0.260274 0.417227 0.0340387 
0.645787 0.101544 -0.104896 
-0.153389 -0.312239 -0.453083 
-0.28413 0.234461 0.302855 
0.46813 0.177187 0.2101 
0.546161 0.197741 0.182845 
0.199202 0.261713 -0.356418 
0.818031 0.481523 0.41891 
-0.218457 -0.476578 -0.226444 
0.0574785 -0.210462 -0.0475397 
0.061931 0.0445132 0.330123 
-0.608203 -0.46224 0.104241 
-0.401023 -0.392082 0.0447388 
-0.311965 -0.231622 0.213967 
0.431098 0.0648038 0.0675356 
0.430069 0.0211008 0.00301434 
0.092719 -0.0187159 0.211164 
0.262118 -0.15103 -0.244914 
0.667108 0.651431 0.177358 
0.376064 0.188112 -0.296179 
0.580909 0.191266 -0.198437 
-0.276363 -0.0476556 -0.51236 
-0.198341 0.348677 -0.211748 
-0.565191 -0.411812 -0.556317 
-0.50061 0.158569 0.137054 
-0.215815 0.135033 -0.474037 
-0.727907 -0.287688 -0.367454 
0.87879 0.211112 0.00181237 
-0.856227 -0.331859 0.00449234 
0.145352 0.461294 0.487956 
-0.440454 -0.0135551 -0.521869 
0.496213 -0.0317523 -0.132417 
-0.535702 -0.515719 -0.0332383 
0.290127 0.180753 0.352739 
-0.0811706 -0.569714 -0.29769 
-0.301208 -0.438775 -0.104267 
0.424459 0.695624 0.439895 
0.946657 0.32244 0.0475616 
0.63227 0.342777 0.356911 
-0.32187 0.414177 0.00778396 
-0.44125 -0.0846593 0.310187 
-0.757734 0.0563594 -0.134138 
-0.180973 -0.514509 -0.375803 
0.773404 0.418779 0.376243 
0.730256 0.359884 -0.053054 
0.319294 0.0382977 -0.296215 
-0.227547 0.145612 0.372828 
-0.371681 0.2269 0.21751 
0.338049 0.674919 0.44998 
0.0331613 0.338962 -0.352951 
-0.69318 -0.155549 -0.35866 
0.486013 0.470199 -0.026565 
-0.704738 -0.546955 -0.0971866 
0.72746 0.0851141 0.0632668 
-0.165486 0.465711 0.194683 
0.488187 0.553148 0.0505052 
-0.132162 -0.0514989 -0.469356 
0.900476 0.376524 0.0824941 
0.83021 0.50975 0.022884 
-0.0723477 0.454397 -0.0986205 
0.83186 0.615487 0.262221 
0.606759 0.180338 -0.0426278 
0.150383 0.48391 -0.00908228 
-0.149417 -0.578034 -0.334611 
0.311684 -0.112008 -0.102052 
0.0119348 0.10602 0.463713 
-0.780481 -0.0194694 -0.146889 
0.427355 0.309795 -0.259148 
-0.495525 -0.461859 0.308321 
-0.310539 -7.56755e-05 0.36045 
0.639167 0.275814 -0.106465 
-0.304819 -0.606239 -0.430402 
0.286326 0.3724 0.477138 
0.314371 0.265628 0.637323 
-0.410935 0.0894704 -0.420753 
-0.559115 0.199308 -0.138967 
-0.459875 0.291894 0.040627 
-0.722072 -0.384401 0.159592 
0.428394 0.368079 0.646937 
-0.745788 -0.369715 -0.342218 
0.812046 0.325356 -0.00640453 
-0.864713 -0.220273 0.0797558 
-0.0926351 0.445467 -0.168611 
0.278586 0.476316 -0.0218997 
0.193408 0.575972 0.446308 
-0.813726 -0.168514 -0.168372 
0.222269 0.411365 0.364074 
0.693132 0.0556925 -0.061605 
0.654057 0.62325 0.564316 
-0.743064 -0.0721929 -0.243606 
0.377551 -0.0833318 -0.111444 
0.269774 0.0731067 0.107694 
-0.499645 0.0458079 0.2331 
0.82 0.533543 0.192373 
-0.784517 -0.0178739 -0.00368886 
0.90331 0.537527 0.155815 
-0.721426 -0.447988 -0.246595 
0.643314 0.336666 -0.189813 
-0.476154 -0.297967 0.252921 
0.432931 0.170743 -0.221792 
-0.81173 -0.0976527 0.0480393 
0.621985 0.0693422 -0.00440465 
-0.763727 -0.299787 0.201191 
-0.350147 0.116079 0.302104 
0.731064 0.528388 0.479345 
-0.338441 -0.5296 -0.367783 
0.72859 0.590299 0.347789 
-0.660991 -0.484912 -0.304536 
0.0535244 0.479217 0.288799 
0.291874 0.419024 0.564065 
-0.567757 -0.623689 -0.285209 
-0.321722 -0.473051 -0.451811 
0.31313 0.29558 -0.142586 
0.514163 0.188942 -0.164677 
-0.302789 -0.448846 -0.369703 
0.265471 0.145322 0.0932553 
-0.200039 -0.212263 -0.496608 
-0.77582 -0.451932 -0.111038 
0.798664 0.276386 0.135454 
0.108833 0.539508 0.197438 
0.555847 0.104302 -0.11001 
0.515897 0.436366 0.650109 
-0.35019 0.0736893 -0.484682 
-0.511072 -0.0389648 -0.501858 
0.33515 0.413578 -0.164509 
0.48313 0.374368 0.520512 
-0.193319 0.49318 0.0769725 
0.817584 0.401338 0.315112 
0.547793 0.581171 0.0765587 
0.441806 0.355934 -0.189841 
0.370299 0.0948342 -0.28165 
0.373586 0.0642387 0.112325 
-0.192163 -0.255935 0.0825583 
-0.451528 -0.530653 -0.122355 
-0.330842 0.337122 -0.127819 
0.514405 0.106007 0.0630348 
-0.235097 0.237163 -0.353232 
-0.0626441 -0.308563 -0.0988896 
-0.208057 0.417589 -0.0833202 
-0.0100543 0.31074 0.447125 
0.72676 0.662054 0.434892 
-0.252839 -0.40172 -0.419484 
-0.292541 0.435933 0.0799465 
0.368358 0.29872 0.345145 
0.13855 -0.0196687 -0.381005 
0.0419127 0.38495 0.449997 
-0.56924 -0.301419 0.298031 
0.426444 0.266177 0.592466 
-0.180965 -0.386377 -0.443746 
0.319298 0.629607 0.503274 
0.140098 -0.293015 -0.23455 
0.438036 0.296163 0.694938 
0.372572 0.469983 0.0100447 
0.671181 0.327067 -0.0198561 
-0.165267 -0.640411 -0.228532 
-0.132074 0.30377 0.366424 
0.13172 0.377944 0.20313 
0.5182 0.35659 0.648933 
0.0853365 0.0978734 0.391326 
-0.322613 -0.303731 0.11461 
0.0114814 -0.195055 0.011991 
0.351972 0.542283 0.12465 
0.0273368 -0.305237 -0.165315 
-0.00470643 0.0152546 0.339255 
0.0567702 -0.131751 0.0706977 
-0.484544 -0.354862 0.166656 
0.0657156 0.447296 -0.126389 
0.812015 0.33454 0.215734 
0.427876 0.00486078 -0.20825 
0.387149 0.268918 0.0635339 
-0.204857 -0.281633 -0.492305 
0.757934 0.170574 -0.0493965 
0.415878 0.661913 0.313736 
-0.586866 0.00307872 -0.386725 
-0.282597 -0.31606 -0.523372 
0.00619463 0.206165 -0.414103 
-0.691571 -0.460942 0.225411 
-0.11581 0.367013 0.341911 
-0.0800279 -0.422087 -0.254819 
-0.626252 -0.271057 0.237287 
-0.845575 -0.359622 0.131464 
-0.0358089 0.519258 0.14432 
0.544124 0.341035 0.410486 
0.0459144 0.508131 0.381315 
-0.167201 0.417642 0.242133 
-0.0108893 -0.204482 -0.405051 
-0.136379 0.102614 -0.46365 
-0.879167 -0.198628 -0.0376178 
0.511275 0.642978 0.597014 
0.704692 0.347551 -0.16523 
0.832415 0.0800244 0.0136628 
-0.207798 -0.658775 -0.350022 
0.0695494 0.475213 -0.0424788 
0.804452 0.272946 0.0451177 
-0.147705 0.226958 -0.420138 
0.908196 0.448576 0.317768 
-0.445453 0.127074 0.225098 
-0.743367 -0.495653 -0.178561 
0.403359 0.301844 0.457689 
-0.638903 0.0843283 0.0591229 
0.76459 0.660408 0.260872 
0.32534 0.533297 0.462618 
-0.413702 0.0128576 0.302405 
0.414128 0.19041 -0.0791749 
-0.0338781 0.0461184 -0.440718 
0.0964691 -0.0878625 0.104812 
-0.529519 -0.658086 -0.213636 
-0.106202 -0.00404232 0.390939 
0.155392 0.158113 0.4258 
0.112977 -0.175758 -0.0396931 
-0.303249 -0.159455 -0.528422 
0.165378 -0.0496219 0.107306 
0.371302 0.329996 -0.180541 
-0.596833 -0.494401 0.292875 
-0.168483 0.318934 -0.275973 
-0.527874 -0.564658 -0.474338 
0.552545 0.493619 0.659443 
0.909407 0.307253 0.10356 
0.207772 0.295421 0.054796 
0.87535 0.546097 0.277313 
-0.589254 0.222398 -0.0628389 
0.525403 0.683497 0.306282 
0.21121 0.523716 0.198753 
0.297239 0.243585 0.441031 
0.630393 0.666593 0.229157 
0.931695 0.447847 0.0994788 
-0.214477 -0.416572 -0.326652 
0.916169 0.337631 -0.0077617 
-0.357523 0.230076 -0.27455 
0.313747 0.155689 0.296526 
0.215347 0.128043 -0.354788 
-0.0575453 -0.211592 0.0420385 
-0.0422306 0.0370685 0.401642 
0.201619 0.369461 -0.281783 
0.0771867 -0.348619 -0.273658 
-0.572235 -0.175244 0.247239 
-0.47762 -0.678663 -0.344556 
-0.33052 -0.673589 -0.345564 
-0.0990081 0.479607 -0.0260144 
-0.665577 -0.155785 0.214748 
0.047737 0.154781 0.502307 
-0.193712 0.458573 -0.00983889 
-0.677112 -0.50048 0.101748 
0.216429 0.259546 0.171222 
0.652267 0.19916 -0.135131 
0.774439 0.607764 0.0878529 
0.255173 0.574987 0.22676 
-0.380578 -0.420142 -0.542257 
0.880578 0.453061 0.200913 
0.498161 0.256905 -0.227303 
0.21075 0.446254 0.450931 
0.171058 0.100476 0.158133 
-0.76393 -0.126846 0.129635 
0.607681 0.685023 0.54406 
0.288082 0.507327 0.119154 
-0.467522 0.0656806 -0.407488 
-0.581754 -0.067737 0.230724 
0.806415 0.304665 -0.0780856 
0.504753 0.397318 -0.11894 
-0.577857 -0.578142 -0.399793 
-0.273 0.144248 -0.448307 
0.2753 0.386835 -0.0193892 
0.362253 -0.0753086 -0.211161 
0.428384 0.501469 0.474815 
-0.26916 0.403089 0.14204 
0.223433 0.252492 0.512909 
0.162924 -0.0126195 0.158675 
0.165648 -0.229043 -0.161149 
-0.194282 -0.422635 -0.164981 
-0.195475 -0.0860786 0.339127 
0.020927 -0.0439477 0.230406 
-0.477199 -0.14069 -0.562864 
-0.44643 -0.433683 0.0185734 
-0.45848 0.17695 -0.26797 
-0.0451909 0.367125 -0.272267 
0.759557 0.290856 0.00332451 
0.374341 0.277135 -0.244287 
-0.405723 0.134401 -0.367545 
-0.450581 -0.229866 0.328546 
0.622708 0.306685 0.296778 
-0.673844 -0.594996 -0.0618071 
0.689972 0.538355 -0.037358 
0.0615689 -0.280966 -0.321325 
0.811753 0.202036 0.0669934 
0.47595 0.457839 0.562536 
-0.861736 -0.315435 0.0648734 
0.830158 0.391484 -0.0929439 
-0.407938 0.354016 -0.0217299 
-0.670025 -0.279997 -0.425475 
0.702054 0.606476 0.066693 
0.284992 0.427499 0.42296 
0.472504 0.551084 0.598516 
-0.764885 -0.290541 -0.316823 
-0.616645 -0.125497 -0.4413 
-0.208264 -0.00673019 0.410893 
0.312917 0.205277 -0.320671 
0.0892299 0.397848 0.296089 
-0.64117 -0.306996 0.158042 
0.566732 0.724217 0.458216 
-0.402179 0.174207 0.229773 
-0.185708 -0.685782 -0.266382 
-0.271346 -0.503333 -0.259865 
-0.463351 0.28945 -0.086085 
-0.802437 -0.289553 -0.242299 
-0.532093 -0.00673822 0.239266 
0.0704425 0.380395 0.38713 
-0.155186 0.508745 0.140758 
0.843312 0.253554 -0.0343672 
0.350154 0.652332 0.329938 
0.315677 0.238716 0.574427 
0.322718 -0.0345224 -0.266257 
-0.595769 -0.418309 0.319291 
0.091171 0.383217 -0.273841 
-0.696707 0.0581432 -0.211349 
0.38498 0.205488 0.308558 
0.569195 0.26002 0.267507 
-0.692582 -0.210186 0.162707 
0.358272 0.394256 -0.0780623 
0.135217 0.191981 0.494407 
-0.111031 -0.280434 -0.0184437 
-0.506925 -0.333308 0.350318 
0.104886 0.019542 0.258706 
0.0808282 -0.0561044 0.164702 
0.382914 0.197233 -0.140536 
-0.72408 0.0690767 -0.016013 
-0.791621 0.000818215 -0.0900263 
0.619218 0.331002 -0.0671048 
0.0734172 0.519798 0.123335 
-0.524184 -0.609751 -0.414932 
-0.606136 -0.312598 -0.507215 
0.351591 0.440736 0.592392 
0.457262 0.641355 0.552912 
0.680551 0.0953623 0.0253779 
0.218725 0.585787 0.287554 
-0.563807 -0.206095 -0.525086 
0.543935 0.0455374 -0.139265 
-0.348544 -0.532839 -0.488458 
-0.617264 -0.590401 -0.266933 
0.0865315 0.324732 -0.379221 
0.243265 -0.0767428 -0.30172 
0.281453 0.499225 0.0375977 
0.42702 0.455653 -0.0191969 
0.564318 0.441312 -0.159407 
-0.231924 0.312846 0.276393 
0.133118 0.0405514 0.11241 
-0.021346 0.309467 -0.375422 
0.296075 0.25218 -0.0523942 
0.757391 0.112615 -0.0294574 
0.618188 0.415848 0.481258 
0.0878054 0.550917 0.380587 
-0.371397 0.25616 -0.222578 
0.628504 0.170961 0.0833691 
0.115505 0.416731 -0.19783 
0.810705 0.457299 -0.0557826 
-0.0943936 -0.456288 -0.331903 
0.315311 0.310938 0.513626 
0.238837 0.577498 0.485281 
-0.403156 -0.606788 -0.349264 
0.796724 0.564654 0.434283 
0.542187 0.684097 0.567119 
-0.302662 0.375301 -0.0852361 
0.585261 0.13189 -0.162876 
-0.468926 -0.203898 0.220722 
-0.0573245 0.483795 0.403257 
-0.638123 -0.185537 -0.439316 
0.245668 0.418668 0.490106 
0.195105 -0.201706 -0.267502 
0.591604 0.237238 0.209768 
-0.547765 -0.186034 0.148782 
0.649439 0.673347 0.45022 
0.321942 0.421967 0.483665 
-0.748598 -0.17244 0.163327 
0.850097 0.246358 0.0733415 
0.0289975 0.403638 -0.239193 
0.79449 0.619503 0.144537 
0.336239 0.384636 0.259239 
0.696527 0.44543 0.479052 
-0.0981671 -0.0983454 0.243578 
-0.0251199 -0.330376 -0.161276 
0.228391 0.62976 0.414432 
0.184275 -0.150239 -0.0581146 
-0.19765 -0.151781 0.242626 
-0.632261 -0.537886 0.0102371 
-0.438061 -0.386566 -0.570299 
-0.569062 0.0779413 0.143565 
0.303177 0.358792 -0.0854001 
-0.698744 -0.394066 0.262278 
0.231038 0.303703 0.205988 
-0.487101 -0.622272 -0.231101 
0.756066 0.564315 0.51715 
0.517202 0.725215 0.495077 
0.962621 0.390719 0.178257 
0.843201 0.578125 0.0774465 
-0.120404 0.189079 0.419637 
0.14241 0.566694 0.337257 
-0.520747 -0.253232 0.211675 
0.647754 0.515151 -0.0680381 
0.732443 0.654338 0.188839 
-0.138477 0.379222 -0.199822 
0.366292 0.259216 0.66714 
-0.264933 -0.606158 -0.383294 
-0.375288 0.382277 0.0221367 
0.100601 0.288192 0.50451 
-0.769714 -0.46765 0.202683 
-0.0683178 -0.0529621 -0.447499 
0.334561 0.477111 0.434209 
-0.268393 0.335237 0.214955 
-0.0883457 0.448663 0.300644 
0.170986 0.0327773 -0.367652 
-0.0819592 0.106493 0.448491 
-0.749148 -0.512414 -0.0044096 
-0.641309 -0.233103 0.14674 
0.190769 0.421702 0.0722883 
-0.512218 -0.431002 0.361802 
0.52688 0.50082 -0.0662921 
0.709464 0.467709 -0.144681 
0.69694 0.285103 0.217406 
0.831881 0.516689 0.375962 
-0.309043 0.35127 0.153225 
0.666613 0.40332 -0.173523 
0.400553 0.635891 0.552387 
-0.404332 -0.0513808 -0.544172 
0.863431 0.130226 0.0208561 
-0.537591 -0.471288 -0.543285 
0.533128 0.638011 0.192831 
-0.425716 -0.651657 -0.439728 
0.847418 0.458602 0.298416 
0.655717 0.690796 0.380894 
0.660042 0.687766 0.27857 
-0.813981 -0.437689 0.0742156 
-0.640813 -0.00386024 0.150939 
0.120158 0.5481 0.25241 
-0.313202 -0.097807 0.37962 
0.932723 0.492751 0.134343 
-0.772276 -0.0440712 0.0457261 
0.293839 0.190003 0.255499 
-0.384114 -0.566839 -0.402943 
-0.700544 -0.374497 0.108168 
0.0576662 0.225545 -0.398447 
-0.635577 -0.0403462 -0.38744 
-0.557048 -0.115144 -0.50653 
-0.585383 -0.358529 0.13896 
0.766123 0.51259 0.437737 
0.00433802 -0.28852 -0.35798 
-0.595106 -0.222808 0.113675 
-0.783987 -0.473541 -0.0267744 
0.676482 0.158662 -0.0930051 
-0.455649 0.2157 0.125848 
0.63487 0.0662093 -0.0625612 
0.453275 0.237464 0.0996866 
0.173099 0.413055 0.425274 
-0.402851 0.123011 0.261889 
0.346561 0.316854 0.615628 
-0.760534 -0.202463 -0.273129 
-0.549447 0.174295 0.0656348 
0.762113 0.483498 0.491789 
-0.788435 -0.414088 -0.0660748 
0.00712789 0.260497 0.4665 
-0.299488 0.259688 -0.274362 
0.396477 0.23351 -0.354594 
-0.0894037 -0.395131 -0.372213 
-0.502873 -0.142171 0.290795 
-0.258699 -0.705027 -0.357156 
-0.477054 -0.274181 -0.575793 
-0.838772 -0.103343 -0.0746569 
-0.318624 0.238458 0.257564 
-0.111542 -0.625239 -0.256342 
-0.313256 -0.483016 -0.304359 
-0.404437 -0.50611 -0.386455 
-0.75731 -0.0359873 -0.197832 
0.791831 0.360352 -0.0442009 
0.325258 0.203653 0.0661829 
0.451767 0.568728 0.0889351 
0.125034 0.355474 0.284931 
0.377341 0.535348 0.172789 
0.567354 0.16415 0.04897 
-0.339554 0.270318 0.205816 
0.352573 0.339026 -0.283893 
0.750928 0.296141 0.0632879 
0.00926524 -0.386231 -0.30745 
-0.662638 -0.536637 -0.260641 
-0.209152 0.372831 0.239879 
-0.0507082 -0.176129 -0.43526 
-0.404502 0.309779 0.0981337 
0.130322 -0.112062 -0.357303 
-0.421999 -0.25844 -0.566456 
0.438328 0.105932 0.123287 
-0.043697 -0.107345 0.186903 
0.427618 -0.045471 -0.0945674 
-0.243814 -0.416506 -0.116515 
0.392636 0.264828 0.406926 
-0.231271 -0.356831 -0.0372524 
-0.227791 -0.246556 0.124851 
0.358084 -0.128175 -0.161074 
0.281868 0.0959215 0.232466 
-0.155257 0.0855275 0.420262 
0.659303 0.631392 0.126069 
-0.448209 0.227643 -0.200333 
-0.623686 -0.201407 0.235187 
0.379659 0.54908 0.543373 
0.328784 0.379288 -0.234313 
-0.583576 -0.0318661 -0.429784 
-0.874876 -0.24038 -0.0837845 
0.609614 0.204349 0.00673129 
-0.732967 -0.388649 0.212999 
-0.654237 -0.477697 0.302453 
-0.707061 -0.264711 0.204736 
-0.508769 0.271101 0.00508811 
0.451962 0.178923 0.119366 
-0.198752 0.225789 -0.393177 
0.233537 0.348945 0.493788 
0.734958 0.0319471 0.0486026 
0.90889 0.428715 -0.017187 
0.595779 0.43863 0.538997 
0.321469 0.600699 0.238154 
-0.489011 -0.342406 -0.579839 
0.4727 0.202239 -0.113864 
0.414458 0.577691 0.576227 
0.475124 0.327199 0.607718 
0.88671 0.49867 0.315348 
0.307225 0.0358497 0.122537 
-0.332742 -0.656414 -0.396761 
-0.406435 0.0264882 -0.500791 
-0.302766 0.0427295 -0.513553 
0.834391 0.0873859 0.0683154 
-0.0949275 -0.103644 -0.462838 
0.709126 0.363509 0.328888 
0.643757 0.380926 0.402864 
-0.579618 -0.180449 0.192236 
0.629976 0.136385 -0.0206038 
0.288428 0.29203 0.227533 
0.198296 0.308679 0.550018 
0.446317 0.435337 0.658565 
0.177186 0.319522 0.183903 
0.753044 0.568398 0.00469249 
-0.152438 -0.402724 -0.345344 
0.320385 0.330117 0.447842 
-0.313744 0.065255 0.346643 
0.298279 0.457678 -0.0693215 
-0.139113 0.44762 -0.197319 
0.223619 0.243958 0.0616122 
0.702248 0.61525 0.527879 
-0.258203 -0.16191 0.27553 
-0.303797 -0.147264 0.335569 
0.328512 -0.0774897 -0.0637985 
0.928321 0.469328 0.0497379 
-0.23546 -0.399728 -0.475511 
-0.449577 -0.644085 -0.293487 
0.220162 0.155155 0.14784 
0.250046 -0.0648432 0.0173687 
-0.365618 -0.580596 -0.265187 
0.202834 0.397516 -0.225078 
-0.277268 -0.341424 0.0222783 
-0.0281119 -0.0381056 0.278051 
-0.34124 -0.382535 0.0115758 
-0.290186 0.325346 -0.179649 
-0.170986 0.263943 0.359381 
-0.0856338 0.275561 0.415184 
-0.245464 0.0938483 0.376496 
-0.777903 -0.373636 -0.241997 
-0.379433 -0.319447 -0.559723 
-0.347027 -0.0468317 -0.53566 
0.0586746 0.113373 0.435654 
0.27209 0.0449418 0.164009 
-0.198632 -0.121711 -0.492095 
0.649642 0.245675 0.188126 
-0.312973 0.192802 -0.357761 
0.804777 0.569545 0.380161 
0.906639 0.507786 0.201108 
0.828241 0.555753 -0.00900395 
0.685095 0.225086 0.125283 
-0.495633 0.230443 -0.150653 
-0.128517 -0.432727 -0.291228 
-0.723352 -0.0225239 -0.247898 
-0.635773 -0.615722 -0.0974446 
0.530628 0.367361 0.472348 
0.201596 0.514408 0.0902408 
0.139311 0.325709 -0.368526 
0.729667 0.330984 0.260031 
0.36946 0.374007 0.608199 
0.554616 0.182125 -0.0575601 
-0.150294 0.297028 -0.323157 
0.439084 0.195146 0.252133 
0.451503 -0.0243595 -0.170421 
-0.1923 0.0863676 -0.476987 
-0.0258361 0.251077 -0.419835 
0.343752 0.27983 0.283349 
0.223814 0.361669 0.262995 
0.610036 0.561216 0.610694 
0.575589 0.53213 -0.0345418 
0.417779 0.48413 0.0444713 
0.186191 0.0310337 0.111114 
-0.657437 -0.149412 -0.401436 
0.835034 0.508706 0.261265 
0.496515 0.266727 0.0521155 
0.44451 0.707363 0.496579 
-0.70823 -0.0537751 0.127842 
-0.175338 0.323319 0.323821 
-0.32061 -0.55733 -0.45091 
0.419163 0.0569309 -0.241443 
-0.238595 -0.522404 -0.402828 
-0.822525 -0.370253 -0.0324681 
-0.603521 -0.430963 0.147286 
0.310413 0.263933 -0.329286 
0.481394 0.365534 -0.236388 
0.463117 0.696912 0.39935 
0.474706 0.144097 -0.239731 
0.584256 0.288879 -0.0807145 
-0.6813 -0.532044 0.0578821 
-0.640367 0.152198 -0.131165 
0.289934 0.635386 0.338625 
0.0863955 -0.210843 -0.344312 
0.155563 0.536822 0.295922 
-0.324618 0.282034 -0.222979 
0.188736 0.344531 0.0627207 
-0.0918221 0.49523 0.0447195 
0.600494 0.221713 -0.0937543 
-0.634609 0.170057 -0.0303986 
-0.445267 -0.269164 0.2931 
0.254407 0.540008 0.5309 
0.436438 0.485509 0.529096 
-0.671441 0.151482 -0.0643303 
0.494848 0.347968 -0.186826 
-0.226739 -0.357835 -0.341164 
-0.544299 -0.375673 0.167229 
-0.659926 -0.584338 9.35942e-05 
0.333988 0.366466 0.31053 
-0.325877 -0.406846 -0.522533 
0.621823 0.22261 -0.186006 
-0.688862 -0.473045 0.152089 
-0.675755 -0.271384 0.134534 
0.0826048 0.0804526 -0.39728 
0.00208151 -0.0827149 -0.423989 
-0.561125 -0.257471 -0.537182 
0.867302 0.467872 -0.0278736 
0.187263 0.605354 0.390919 
0.538643 0.00175897 -0.110086 
-0.337098 -0.214696 -0.542867 
-0.511128 -0.22122 0.157539 
-0.539097 0.260732 -0.0472923 
0.14864 0.368828 0.516174 
-0.74581 -0.392292 -0.295354 
0.886042 0.411455 0.285749 
0.356178 0.297355 0.484482 
-0.421741 -0.255077 0.21096 
-0.599925 -0.534567 -0.382011 
-0.238061 0.0423222 -0.492765 
0.733828 0.662387 0.370807 
0.789767 0.418548 -0.110864 
-0.757597 -0.508586 0.112209 
-0.887796 -0.209388 0.0121193 
0.508761 0.650577 0.240782 
-0.613259 -0.485992 -0.416762 
0.126659 0.432431 0.188344 
-0.220002 -0.420873 -0.273652 
-0.3665 -0.464406 -0.426947 
-0.00258084 0.455822 -0.104666 
-0.407381 -0.588439 -0.493442 
0.246413 0.435095 0.53963 
0.152609 0.365241 -0.296385 
0.113865 0.0349572 -0.391807 
0.478586 0.524291 0.00121944 
0.824811 0.603465 0.183001 
-0.63767 0.0403503 -0.292657 
0.648693 0.584137 0.0363177 
0.453864 0.273996 0.00442871 
0.243855 0.338395 -0.0177106 
-0.35603 0.332985 0.117956 
-0.802438 -0.317292 0.174282 
0.588941 0.3412 0.385002 
0.194579 0.464358 0.500657 
-0.536002 -0.367674 -0.572467 
-0.521247 -0.0909369 -0.536098 
0.80099 0.363914 0.024628 
0.266036 0.276587 0.528891 
-0.46048 -0.41358 0.327137 
0.233565 0.423169 -0.161962 
0.294368 0.543971 0.241688 
0.295707 0.497154 0.489106 
-0.785698 -0.419788 0.204353 
0.10408 0.467129 0.458655 
-0.243685 0.265091 0.306726 
-0.803299 -0.256898 0.145338 
0.705038 0.652305 0.478837 
0.803851 0.524794 -0.0713228 
0.133373 0.518728 0.113479 
0.469679 0.378751 -0.154254 
0.416921 0.439749 -0.103767 
0.535416 0.389634 -0.219631 
0.376155 0.508565 0.448229 
0.252761 0.343595 -0.313852 
0.0874121 0.508679 0.0759481 
0.665831 0.159564 0.0367129 
0.52672 0.442094 0.524268 
0.468835 0.282731 -0.263718 
0.59507 0.673209 0.457767 
-0.017183 0.529303 0.189775 
0.537835 0.150734 -0.10297 
-0.361587 -0.514084 -0.32622 
-0.4684 -0.503891 -0.532906 
0.592003 0.57702 0.0510004 
0.676854 0.365956 -0.0507511 
-0.196852 0.0540738 0.406242 
-0.316394 -0.0496225 0.365725 
-0.29345 -0.427091 -0.322964 
0.575756 0.604462 0.110816 
-0.359558 -0.63195 -0.360534 
0.744683 0.254762 0.136129 
0.379737 0.18735 -0.363141 
-0.59098 0.202389 -0.0166799 
0.201523 -0.0997827 -0.318771 
0.114609 0.217287 -0.383238 
0.591893 0.470044 -0.128502 
0.765643 0.519083 0.536289 
-0.409882 -0.687176 -0.403167 
-0.794416 -0.117988 0.0923642 
-0.63886 -0.253052 -0.455135 
0.467456 0.14915 -0.191039 
0.145637 0.546092 0.431677 
-0.459283 -0.3055 0.188955 
-0.482685 0.251259 0.0569522 
-0.451819 -0.308657 0.339515 
0.592136 0.710275 0.360204 
0.928722 0.272329 0.0360223 
0.590065 0.0833909 -0.0760266 
0.535028 0.615314 0.149527 
-0.185261 -0.601991 -0.251556 
0.664946 0.247918 0.0259967 
-0.535832 0.0471493 -0.375094 
-0.0757635 0.369693 0.371152 
-0.53003 -0.223302 0.299174 
0.83479 0.188901 -0.0181049 
-0.673858 -0.0523055 -0.335627 
-0.128659 0.0528703 -0.463542 
0.866181 0.311057 -0.007827 
0.410802 0.571476 0.115718 
0.859833 0.197943 0.0875981 
-0.197815 0.175707 -0.453068 
-0.164142 -0.633778 -0.327631 
-0.525662 -0.231028 -0.559208 
0.156865 0.521374 0.226577 
-0.107189 0.495215 0.375363 
-0.558183 -0.489474 -0.50302 
-0.781581 -0.406815 -0.141242 
0.444135 0.482631 -0.0573182 
-0.630997 -0.618788 -0.147101 
-0.841469 -0.137748 0.0490445 
-0.48391 -0.571231 -0.505288 
-0.102233 -0.61437 -0.30449 
-0.652593 -0.376637 0.259579 
0.435504 0.632088 0.229985 
0.918263 0.366291 0.0334236 
0.700277 0.288657 -0.031562 
-0.6717 -0.300291 0.233574 
0.471317 0.449799 -0.122073 
-0.750694 0.0286573 -0.00814229 
-0.278314 -0.118671 -0.516721 
0.556605 0.194394 -0.141056 
0.587839 0.0678252 -0.123088 
0.601631 0.315652 -0.203882 
0.321759 0.489585 0.0128285 
0.408311 0.158507 0.11365 
0.0761964 0.34947 0.481806 
-0.281373 -0.442344 -0.451679 
0.531941 0.0618145 -0.0169494 
-0.616803 -0.370978 0.298618 
0.843847 0.277894 0.109721 
0.449725 0.143607 0.17057 
0.226896 0.0284914 0.169378 
0.92093 0.460189 0.238528 
-0.0294859 0.501963 0.0603679 
-0.141545 0.496383 0.0741013 
0.706297 0.316022 0.0124369 
0.358909 0.163981 0.26719 
0.745309 0.601442 0.304002 
0.796868 0.366011 0.274803 
0.312386 0.212114 0.381962 
-0.403795 -0.581068 -0.235601 
0.239941 0.164596 0.368404 
-0.0878954 -0.0476527 0.311215 
-0.425734 -0.490015 -0.0820664 
-0.392726 0.0628221 0.297551 
-0.490413 -0.452415 0.0254685 
-0.564539 -0.565922 -0.0854121 
0.688543 0.408399 0.420196 
-0.713192 -0.559823 0.0337941 
0.218925 0.0985137 0.286285 
0.274256 -0.146914 -0.12454 
0.111346 0.0600878 0.314198 
-0.0403848 -0.277202 -0.0696661 
-0.497526 -0.515247 -0.062824 
-0.258872 0.286034 -0.265235 
-0.525656 -0.187736 0.256478 
0.858384 0.350812 0.211134 
-0.190482 -0.189946 0.17988 
-0.494676 0.174779 -0.236598 
0.516647 0.223074 -0.121517 
0.854726 0.557528 0.0355426 
-0.180201 -0.697076 -0.315158 
-0.0683584 0.203414 0.441056 
-0.655145 0.081438 -0.221296 
-0.539388 -0.48167 0.309575 
-0.236645 0.349834 -0.181591 
0.735797 0.203286 0.0622898 
-0.584622 0.0760382 -0.295156 
0.123796 0.112667 -0.383769 
0.752165 0.568213 0.415983 
0.703776 0.526705 0.598742 
0.148664 0.398294 0.161132 
-0.256726 -0.56723 -0.410242 
0.0235434 0.453719 0.400285 
0.536075 0.160665 -0.208612 
0.663038 0.309264 -0.0636024 
0.869127 0.523271 -0.00350924 
0.140638 0.313801 0.520856 
-0.719252 -0.183416 -0.330487 
0.577258 0.102942 0.0105456 
-0.234624 -0.684948 -0.26564 
0.531494 0.439351 0.604845 
0.498418 0.540333 0.526496 
-0.367719 0.360922 0.0707025 
0.745175 0.358831 -0.141169 
-0.440194 0.319764 -0.0571737 
0.300954 -0.146069 -0.217198 
-0.517768 -0.428291 0.275896 
0.468481 0.0874255 -0.221223 
0.705824 0.541 0.518228 
-0.688502 0.0471821 0.0508065 
0.677006 0.262477 -0.138735 
-0.398742 0.235301 0.178805 
-0.162581 -0.417175 -0.406083 
-0.10782 0.407098 0.316864 
-0.479403 -0.460352 -0.563275 
0.0747359 0.127696 -0.399041 
-0.534836 0.0501465 0.20067 
-0.142146 -0.486619 -0.360983 
0.167601 0.40142 0.486946 
0.45582 0.196909 -0.259811 
0.297023 0.277288 -0.0922772 
0.269152 0.420566 0.362255 
0.70624 0.680163 0.289524 
0.398763 0.542501 0.066225 
-0.649578 -0.576371 -0.198691 
0.101461 0.38006 0.422959 
-0.246317 -0.199902 -0.514146 
0.538609 0.220953 -0.205022 
-0.303251 0.303399 0.208775 
0.810871 0.446451 0.387884 
0.299014 0.312224 0.613012 
-0.599128 0.0280669 0.163629 
0.814041 0.616359 0.316981 
0.338871 0.533351 0.510939 
0.224921 0.0340269 -0.341739 
0.26161 0.252964 0.483324 
-0.386977 -0.62817 -0.464841 
0.207589 0.344229 0.454248 
0.466916 0.346115 0.693624 
0.632741 0.659025 0.408638 
-0.132515 -0.505922 -0.246111 
-0.512187 -0.656819 -0.321821 
0.716646 0.0218692 -0.0246715 
0.831456 0.543883 0.293105 
-0.099204 -0.545859 -0.243785 
0.266152 0.479413 0.0889236 
-0.271592 -0.635963 -0.292821 
-0.824474 -0.217748 0.116476 
0.553476 0.313039 -0.224624 
-0.0909421 0.245912 -0.423079 
0.853096 0.302781 0.068817 
0.404669 0.364314 0.479271 
0.640897 0.236549 -0.0466215 
0.187554 0.243535 0.138743 
-0.809431 -0.0200362 -0.0520276 
-0.112814 0.292711 -0.351487 
0.411677 0.238843 0.632124 
-0.293291 -0.511374 -0.219087 
0.528019 0.486015 0.614458 
0.399619 0.450989 0.465419 
-0.686567 -0.432975 0.174786 
0.131849 0.341822 0.24142 
0.237191 0.508107 0.152837 
-0.750781 -0.458707 -0.150864 
-0.0548163 0.475907 -0.0371229 
-0.575806 -0.626403 -0.155098 
0.74483 0.332256 -0.0882294 
-0.0516054 0.501257 0.297043 
-0.715205 0.11162 -0.110825 
0.104488 0.492679 0.207544 
0.289393 0.509969 0.536865 
0.674381 0.322212 -0.141709 
-0.157037 -0.0902572 -0.478075 
-0.505563 -0.270762 0.16359 
-0.605095 -0.580627 -0.328815 
0.441753 0.242895 -0.028527 
-0.590329 -0.489438 -0.457802 
0.620019 0.468292 0.570007 
0.509158 0.19709 0.213199 
0.189666 0.480649 0.143598 
-0.441508 -0.366046 0.318273 
0.587103 0.206908 0.164064 
0.537426 0.187837 0.0884703 
-0.0186946 -0.391301 -0.255493 
0.448482 0.264753 0.657384 
-0.2696 -0.199586 0.228247 
0.204807 0.173688 0.409875 
-0.564219 -0.443508 0.0973464 
0.657333 0.558844 0.591244 
-0.85086 -0.323175 -0.0732815 
-0.523973 -0.578171 -0.135913 
-0.829565 -0.211141 -0.160557 
0.803256 0.307189 0.179828 
0.207361 -0.219293 -0.17967 
0.296191 0.0977673 -0.318723 
-0.625478 -0.520721 -0.344966 
0.157293 -0.257154 -0.196546 
-0.187169 -0.359803 -0.0766886 
0.471011 0.0302681 -0.0157663 
0.143224 0.119855 0.378258 
0.175317 0.101199 0.324901 
0.478776 0.115386 0.105327 
-0.0167647 -0.302265 -0.125879 
-0.310828 -0.467181 -0.139103 
-0.020778 0.115718 -0.431592 
0.562401 0.191701 0.00955692 
0.435048 0.283948 0.403823 
0.412913 0.324329 -0.218097 
0.0246684 0.0898356 -0.415917 
-0.351991 -0.471359 -0.342696 
-0.609734 0.112776 -0.21834 
0.269606 0.347939 0.581618 
0.360912 0.596336 0.196402 
0.0347654 0.466545 0.357476 
-0.437854 -0.201295 -0.566736 
0.395977 0.399145 -0.104603 
0.176277 0.462697 -0.0652741 
-0.211039 0.312809 -0.259227 
-0.48561 0.258089 -0.115309 
0.366886 0.506086 0.0999851 
-0.54068 -0.266928 0.309241 
0.881951 0.223526 0.0493191 
-0.00135741 0.491835 0.0150444 
-0.703361 -0.170759 0.19482 
-0.386857 -0.114884 0.343726 
0.375267 0.242673 -0.404666 
-0.824013 -0.25838 -0.194301 
0.0525262 0.538414 0.209026 
-0.710609 -0.309097 -0.409256 
-0.00695185 0.348448 -0.320702 
-0.391939 0.0660429 -0.466919 
0.294727 0.11344 0.104945 
-0.748417 -0.406574 -0.251728 
-0.3844 -0.576546 -0.307137 
-0.19207 -0.166596 -0.4956 
0.357411 -0.0380232 -0.238075 
-0.54938 -0.127552 0.26502 
0.845459 0.43585 -0.0761074 
-0.247941 -0.484562 -0.425336 
0.0221392 0.434787 -0.161626 
0.372361 0.391796 -0.199077 
-0.670778 -0.342939 0.145492 
0.793475 0.503632 0.357427 
0.363995 0.512338 0.0290587 
0.906882 0.3775 -0.0272875 
0.0812294 0.503592 0.248212 
0.751523 0.451093 -0.128192 
0.739605 0.388492 0.351884 
0.244311 0.172229 0.211214 
0.683706 0.679794 0.414975 
-0.362662 -0.578161 -0.364154 
-0.30435 -0.261604 -0.534787 
0.682563 0.496796 0.570858 
0.414712 0.178158 -0.180524 
0.424586 0.147864 -0.265103 
0.114405 0.41192 0.228346 
-0.6018 -0.254439 0.162128 
0.526698 0.269141 -0.0389952 
0.606153 0.18083 -0.161331 
0.257194 0.606652 0.296088 
-0.344564 -0.168213 -0.544119 
-0.559523 -0.570041 -0.441545 
0.117522 0.496853 0.0324103 
0.533438 0.614168 0.622855 
-0.633361 -0.165809 0.184029 
0.441018 0.6042 0.176051 
0.564834 0.696377 0.530156 
0.605431 0.276687 -0.0430055 
-0.0293622 -0.386667 -0.330531 
0.485138 0.463778 0.668316 
-0.111641 0.266777 -0.389223 
-0.716429 -0.46728 -0.202734 
0.506634 0.432917 -0.0888367 
-0.0107281 0.0754191 0.433981 
0.50157 0.0135013 -0.153545 
-0.0526422 0.419814 -0.175788 
0.0820367 -0.134872 -0.374715 
0.361083 0.248131 0.314602 
-0.746535 -0.344799 0.212652 
0.0588642 0.463051 -0.0836361 
-0.357359 -0.495764 -0.144915 
0.316931 0.47403 0.0543463 
0.250151 0.135995 0.317544 
-0.0569772 0.461035 0.349295 
0.488748 0.274366 0.346889 
0.0370529 -0.333551 -0.215355 
-0.396953 -0.338815 0.121146 
0.443321 0.00206444 -0.0359602 
0.316727 0.325008 -0.307862 
-0.651451 0.113289 -0.17661 
-0.154104 -0.233759 0.0855138 
-0.154638 -0.277749 0.0201717 
0.357945 0.0959968 0.172214 
0.0237543 0.0440408 0.359708 
-0.123937 -0.278245 -0.447254 
0.108574 -0.128898 0.0338577 
-0.469127 -0.565754 -0.160867 
-0.0126944 -0.248998 -0.0494722 
0.333864 0.543387 0.168192 
0.0206283 -0.36883 -0.253099 
-0.350518 -0.253511 0.211832 
-0.0705265 -0.371977 -0.187442 
-0.342163 -0.2254 0.24723 
0.498732 0.170205 0.177346 
-0.371331 0.000138842 0.332337 
0.388731 0.136342 0.202207 
-0.432902 -0.45185 -0.0193206 
-0.229472 -0.312546 0.0275285 
0.194332 -0.0211228 0.126939 
0.149793 -0.118861 0.0161576 
-0.179124 0.411071 -0.116022 
-0.00921557 -0.249701 -0.389451 
-0.104162 0.142537 0.433498 
0.00625657 0.183048 0.47722 
0.457307 0.315309 0.433047 
0.766391 0.0630404 0.085874 
-0.501603 0.00298654 -0.458448 
0.263195 0.190806 0.0942556 
0.894547 0.385423 0.234183 
-0.671756 -0.418751 -0.413329 
-0.166591 -0.394431 -0.144787 
-0.410059 0.250293 -0.198707 
0.0899838 -0.00492605 -0.397099 
-0.550949 0.149755 -0.221495 
0.198399 0.0705666 0.205746 
-0.745831 0.0766017 -0.0877644 
0.501038 0.321256 0.417069 
0.501385 0.434293 -0.153386 
-0.367978 0.157811 -0.366428 
-0.221459 -0.372002 -0.409782 
-0.375616 0.127706 -0.399478 
-0.501331 -0.0416843 0.268769 
-0.450338 -0.680035 -0.38005 
0.874605 0.576279 0.157891 
0.353808 0.426193 0.448971 
0.123601 -0.0350911 0.156281 
0.70666 0.356989 -0.0150694 
0.567311 0.697672 0.311915 
-0.700291 -0.438884 0.267273 
-0.76907 -0.25968 -0.285057 
-0.220465 0.433001 -0.0425706 
0.127754 0.473583 -0.045883 
0.215621 0.498551 0.523286 
0.45284 0.666516 0.513435 
-0.714382 -0.246064 0.149958 
0.210033 0.542665 0.279131 
0.836018 0.304262 0.0275719 
0.520593 0.676324 0.52152 
0.398993 0.358199 -0.160347 
-0.319237 0.394166 -0.0360181 
-0.219126 0.469688 0.0367722 
-0.284093 0.0382951 0.365377 
0.262204 0.386186 0.560138 
-0.854567 -0.259086 0.0982117 
-0.229095 0.421363 0.167058 
0.870126 0.365631 -0.0610823 
0.381644 0.688179 0.44111 
-0.0372754 0.417065 0.374084 
0.391525 0.239007 -0.255947 
-0.339788 -0.631767 -0.438854 
0.360566 0.617991 0.545558 
-0.468364 0.143387 0.190995 
0.227881 0.385899 0.520103 
0.29885 0.453377 0.462447 
-0.233186 -0.0486163 0.40933 
-0.493497 -0.181566 0.308991 
0.253292 0.36696 -0.27541 
-0.179278 -0.437506 -0.299379 
0.39946 0.490648 -0.0236456 
0.886309 0.166003 0.0306345 
-0.688569 -0.466713 -0.275104 
0.0781246 0.48021 0.394614 
0.773363 0.604355 0.445333 
0.547994 0.215272 -0.0853158 
-0.46461 -0.342271 0.364285 
-0.252812 -0.411458 -0.351497 
0.323474 0.436807 -0.112653 
-0.295714 -0.374295 -0.519427 
0.832974 0.121811 0.0992816 
0.301205 0.655042 0.465225 
0.17491 0.593658 0.349814 
0.547471 0.272649 0.303626 
0.561187 0.714261 0.408415 
-0.566223 -0.423465 0.351048 
-0.478004 -0.102861 0.294445 
0.730187 0.528241 -0.0607977 
-0.533929 0.145142 0.111963 
0.248469 0.15309 -0.343624 
0.367077 0.566599 0.502878 
0.633358 0.380455 -0.189185 
0.552773 0.259789 -0.0992246 
0.911017 0.509737 0.0373823 
0.617638 0.269516 -0.144013 
0.823719 0.428175 0.348401 
0.31368 0.455552 0.552227 
0.583033 0.587688 0.585197 
0.0238375 0.336369 0.458549 
-0.0269269 0.181118 -0.425267 
0.505961 0.36041 0.607345 
0.256505 -0.0242975 0.0728603 
