ply
format ascii 1.0
comment Created by CloudCompare v2.10.2 (Zephyrus)
comment Created 2022/8/26 17:16
obj_info Generated by CloudCompare!
element vertex 1530
property float x
property float y
property float z
end_header
-0.00353795 0.201934 -0.0907044 
-0.266357 -0.985994 -0.0847087 
0.371545 -0.679713 -0.749191 
-0.518101 0.885636 -0.246937 
-0.679888 0.105057 0.0954521 
-0.513976 0.253608 -0.553979 
-0.0254619 -0.413224 0.186771 
0.397246 -0.268025 -0.272696 
0.0557391 0.773467 -0.35226 
-0.344936 -0.22135 -0.229996 
-0.191149 0.662769 0.148947 
-0.187008 0.210975 0.397545 
0.00583809 -0.872006 0.270531 
-0.60921 0.468836 -0.163445 
-0.300367 0.69486 -0.571106 
-0.390188 -0.591831 0.00731967 
0.309278 0.314711 -0.348043 
-0.153128 0.0738362 -0.540546 
-0.260962 -0.0924873 0.135779 
0.131205 0.557753 -0.0361135 
-0.0971548 0.422229 -0.383962 
-0.163674 0.955119 -0.0819189 
-0.340484 0.26078 0.0528755 
-0.37155 0.121355 -0.264036 
0.254622 -0.439438 -0.532995 
0.00608249 -0.167882 -0.0497497 
-0.141602 -0.448671 -0.131444 
-0.211724 0.924289 -0.389386 
-0.364372 0.628862 -0.271453 
-0.192834 -0.655265 0.227045 
-0.0777213 0.395701 0.198561 
-0.116166 0.666071 -0.131631 
-0.426416 0.530858 0.0549671 
-0.38448 -0.857075 0.135795 
-0.368202 0.780143 -0.0468339 
0.238049 -0.0624471 -0.141543 
-0.453624 -0.0461097 -0.0552226 
-0.129549 -0.0149815 -0.224806 
-0.0301393 0.0350622 0.127899 
-0.366344 0.456186 -0.46914 
-0.562971 0.21388 -0.116024 
0.222574 0.322564 -0.091317 
-0.30829 -0.314463 0.00248609 
-0.421058 0.174123 0.273814 
0.115631 0.180589 -0.337824 
-0.485748 0.327975 -0.305579 
-0.23835 -0.767636 -0.0186382 
-0.11087 0.209105 -0.299368 
-0.303527 0.373505 0.248727 
-0.0754055 0.636339 -0.478524 
-0.563998 0.691412 -0.142961 
-0.554262 0.313506 0.0963964 
0.0417292 0.443928 -0.205631 
-0.0216976 -0.615722 0.0930309 
-0.0726338 -0.203709 0.151796 
-0.414793 0.795757 -0.415431 
-0.0732242 0.512166 0.019191 
0.0303781 -0.384075 -0.0228155 
-0.350961 0.128429 -0.482299 
-0.0783301 0.805012 0.0407482 
-0.157624 0.194576 0.181951 
-0.350818 -0.45697 -0.15336 
-0.142577 -0.216327 -0.182861 
-0.17565 -0.484422 0.068045 
-0.475302 0.102279 0.0817686 
-0.0561528 0.910536 -0.255172 
-0.31979 0.949127 -0.204814 
-0.19141 -0.840304 0.277566 
-0.558449 0.70504 -0.331822 
0.0238317 0.0170623 -0.0698251 
-0.238047 0.284269 -0.411725 
-0.0459607 0.580686 -0.302037 
-0.265291 -0.626531 -0.134944 
-0.489681 0.511249 -0.348965 
-0.303447 -0.0505855 -0.26281 
-0.195168 -0.129515 -0.0378904 
-0.0899857 0.811847 -0.467103 
-0.307503 0.0774466 0.145616 
-0.0346041 0.333352 0.0221192 
-0.231787 0.56636 -0.450149 
-0.0771716 -0.768858 0.159872 
0.34136 -0.353574 -0.410314 
-0.290593 0.523916 0.160944 
0.314189 -0.55603 -0.642363 
-0.543721 0.393069 -0.45771 
-0.597132 0.0645605 -0.0453613 
0.204395 0.395159 -0.247704 
-0.241769 -0.347867 -0.231369 
-0.373219 -0.156142 0.0345418 
-0.402609 0.280185 -0.437475 
-0.245066 0.840421 -0.524643 
0.0197 0.279602 -0.2315 
-0.124519 -0.326309 -0.0259878 
-0.561149 0.464457 -0.0067171 
-0.158981 0.36298 0.335033 
0.0458673 0.615007 -0.173028 
-0.319969 -0.708664 0.104908 
-0.167653 -0.339921 0.134521 
-0.559252 0.219073 -0.405377 
-0.319968 0.663747 0.0578206 
-0.0682538 -0.551433 0.249061 
0.369235 -0.128636 -0.205031 
0.21867 0.239151 -0.235671 
-0.454068 0.102395 -0.126961 
-0.261096 0.170324 -0.602141 
-0.154686 0.802 -0.195834 
0.0826646 0.381901 -0.0682319 
-0.424237 0.376921 0.146448 
0.0374061 -0.916175 0.12743 
-0.177893 0.329708 0.073995 
-0.168614 0.0257019 0.190832 
-0.44241 0.303162 -0.139576 
-0.66461 0.280982 -0.00247358 
-0.246215 0.856623 0.000165835 
0.246189 0.471761 -0.0861482 
-0.0652362 0.656695 0.0662172 
-0.306843 0.836416 -0.315805 
-0.387192 -0.771665 -0.0218952 
-0.0030743 0.814915 -0.086816 
-0.0961265 0.55151 0.172038 
-0.288668 -0.929221 0.0498086 
-0.0383533 0.728198 -0.245432 
-0.0510466 0.181779 0.082412 
0.0384031 -0.278847 0.0782274 
-0.439966 0.655052 -0.0278121 
-0.567109 0.184921 0.162784 
-0.245482 0.16028 -0.32464 
-0.0585495 -0.691927 0.280098 
0.0298675 -0.0944388 0.0717346 
-0.414142 -0.173484 -0.11323 
-0.209029 -0.61929 0.0313108 
-0.0566837 0.104549 -0.19272 
-0.466345 0.221535 -0.0105195 
-0.261501 0.151543 0.266716 
-0.058553 0.132814 0.259217 
-0.0833747 -0.0732581 -0.101069 
-0.575443 0.583552 -0.264944 
-0.196157 0.470611 0.249029 
-0.184973 0.970084 -0.260272 
0.254834 0.17399 -0.35345 
0.0238797 -0.484062 0.0733195 
-0.42064 -0.0111124 -0.199434 
-0.374776 0.247389 -0.568965 
-0.487619 0.435328 -0.219246 
-0.205994 -0.233569 0.0515417 
-0.400443 -0.0127683 0.0861219 
-0.34213 0.680276 -0.414041 
-0.37104 -0.309535 -0.118449 
-0.464879 0.807472 -0.135923 
-0.306417 -0.489287 0.0425229 
-0.275287 0.265213 0.16752 
0.142477 0.526262 -0.178235 
-0.168238 -0.474729 0.198517 
-0.554997 0.579389 -0.068851 
0.17257 0.301931 -0.339958 
-0.250559 0.435583 -0.416443 
-0.603455 0.334956 -0.131293 
-0.0735512 0.910025 -0.386252 
-0.048924 0.270859 0.201589 
-0.395336 0.234926 -0.317982 
-0.0788596 -0.0787935 0.172373 
-0.0219539 0.609434 -0.0421957 
-0.238305 -0.505267 -0.187747 
-0.0716758 -0.45482 -0.00548872 
-0.277145 0.266639 0.33159 
-0.367861 0.5614 -0.390909 
-0.228707 0.753522 0.0736072 
-0.473125 0.26947 0.182773 
0.182535 0.396974 0.00222398 
-0.35747 0.948327 -0.322671 
-0.577129 0.778909 -0.231787 
-0.187107 0.684059 -0.525541 
-0.311965 0.919196 -0.0862768 
-0.109541 0.251266 0.30614 
-0.317761 0.875801 -0.433108 
0.128498 0.00835592 -0.130913 
-0.110377 0.542218 -0.410904 
-0.073062 -0.898696 0.183691 
-0.216065 0.0527127 -0.273795 
-0.206229 -0.12567 -0.227381 
-0.329386 0.354031 -0.378947 
-0.137957 -0.332154 -0.15798 
-0.175252 -0.53887 -0.0626419 
-0.0315683 0.353404 -0.308457 
-0.402426 0.164531 0.15747 
-0.427885 0.710135 -0.328634 
-0.460428 0.175332 -0.45039 
0.0386146 0.486076 0.00383294 
-0.0645662 0.716363 -0.0358984 
-0.443858 0.200177 -0.191266 
-0.283592 -0.821175 0.0878814 
-0.362911 -0.663894 -0.0888784 
-0.0163983 0.697669 -0.397573 
-0.506814 0.810845 -0.331655 
-0.417089 0.910317 -0.161622 
0.139257 0.340479 -0.165633 
-0.12806 0.2996 -0.363277 
-0.0872032 0.892231 -0.134083 
-0.178695 -0.169221 0.146231 
-0.0973821 0.431458 0.0923613 
-0.121358 -0.665195 0.0992325 
-0.147862 0.900808 0.0278168 
-0.265954 0.064202 -0.571446 
-0.474468 0.0633028 -0.0216069 
-0.0827425 -0.814793 0.302943 
-0.383647 -0.115502 -0.223811 
-0.223572 -0.406274 0.00785322 
-0.339091 0.789903 -0.50032 
-0.468835 0.606869 -0.294263 
-0.447655 0.379352 -0.507029 
-0.307114 -0.875185 -0.0428629 
-0.378305 -0.508181 -0.0614035 
0.00744055 -0.276598 -0.0466515 
-0.163925 0.871498 -0.300358 
-0.190121 -0.568447 0.135111 
-0.199066 -0.956051 -0.00468981 
-0.031686 0.4701 -0.280504 
-0.657387 0.171502 0.0136291 
-0.467858 0.490601 -0.452344 
-0.111896 -0.569984 0.0498871 
-0.0155737 -0.678198 0.182508 
-0.144282 -0.216891 -0.0734275 
0.00664847 -0.524351 0.177469 
0.273313 0.322439 -0.196481 
-0.232133 -0.22738 -0.247673 
-0.0623934 -0.309522 0.162895 
-0.38431 0.307088 0.227804 
-0.287644 0.210069 -0.50392 
-0.159047 -0.728729 0.294847 
-0.426135 0.156012 -0.558121 
-0.0280878 0.836595 -0.32594 
-0.313242 -0.606052 0.0768891 
-0.615859 0.372697 -0.015602 
-0.162988 0.161942 0.305732 
-0.0100598 0.0867483 0.0399872 
-0.299369 0.176254 0.116528 
-0.546936 0.400875 -0.345594 
-0.372669 0.469684 0.131197 
-0.339482 -0.41056 -0.0161083 
0.178491 0.199692 -0.416887 
0.0238439 0.30039 -0.0974733 
-0.0436028 0.825019 -0.200244 
-0.418577 0.866427 -0.327636 
-0.515802 0.402016 0.063373 
-0.172115 -0.748594 0.191905 
-0.0998437 0.266033 0.114631 
-0.588227 0.581564 -0.163829 
-0.134082 0.729333 0.0964693 
-0.338203 -0.557943 -0.14009 
-0.581286 0.305481 -0.487388 
-0.0156648 0.230092 0.00365134 
-0.106745 0.0976497 0.163418 
-0.3914 -0.773299 0.0832217 
0.0032273 -0.832243 0.166503 
-0.281559 -0.114157 0.0422039 
-0.35763 -0.237264 -0.0313274 
-0.592874 0.0783784 0.0608787 
-0.0547099 0.00240951 -0.155119 
-0.0456486 0.620115 -0.205489 
-0.188198 0.168539 -0.538766 
-0.0679728 0.863873 -0.0348336 
-0.48731 0.135657 0.192761 
-0.171717 0.86216 -0.461101 
-0.174989 0.366309 -0.414194 
0.198155 0.445594 -0.166116 
-0.337676 -0.358889 -0.19376 
-0.401492 0.154644 0.0501712 
-0.174185 -0.0796584 0.181912 
-0.203465 -0.649249 -0.0592238 
-0.0266319 0.420248 -0.0192884 
-0.0965129 0.783299 -0.122797 
0.0396415 -0.393668 0.0987286 
-0.137659 0.120639 -0.276635 
-0.316373 0.0452024 -0.27817 
-0.208314 0.578316 0.189053 
0.233641 0.362183 -0.380248 
-0.236974 0.949433 -0.158881 
0.0157892 0.536615 -0.232874 
-0.32983 0.238885 -0.386088 
0.0186963 -0.0115173 0.0280433 
-0.551542 0.106555 -0.116521 
-0.205885 -0.279017 -0.0322253 
-0.239254 0.189443 -0.414063 
-0.313645 -0.74762 -0.0753776 
-0.165768 0.467858 -0.440626 
-0.168712 0.78635 -0.51695 
-0.339442 0.717111 -0.298221 
-0.188151 0.237113 0.102018 
-0.0374727 0.598466 -0.395795 
-0.269224 0.692389 -0.482688 
-0.511825 0.357309 -0.168744 
-0.3404 0.1243 -0.590388 
-0.439667 0.18651 -0.0919226 
-0.269711 -0.00160566 0.173517 
-0.000241041 0.105715 -0.0720307 
-0.290929 -0.142863 -0.258454 
-0.492838 0.552583 -0.00686759 
-0.37863 -0.916908 0.037351 
-0.0993202 0.332157 0.260932 
-0.302686 0.749477 0.0197158 
0.138761 0.317724 -0.256435 
-0.271842 0.965756 -0.288124 
-0.481848 0.259859 -0.380392 
-0.538653 0.510557 -0.219362 
-0.233622 0.126892 0.164265 
-0.390646 -0.68517 0.0529962 
-0.425146 -0.0817686 0.0315425 
-0.422595 0.236883 0.0831799 
-0.559432 0.324458 -0.392604 
-0.0143123 0.21138 -0.179876 
0.133095 0.472522 -0.00673966 
-0.566255 0.682324 -0.245042 
-0.164141 0.822222 0.0682661 
-0.196824 0.108786 -0.61432 
-0.342955 0.207177 0.317525 
-0.353385 0.583373 0.0797564 
0.06418 0.612595 -0.0657122 
0.2806 0.390647 -0.100565 
-0.633838 0.196919 0.104745 
-0.466076 0.277106 -0.229698 
-0.295072 0.511778 -0.40156 
-0.166479 0.911036 -0.196902 
-0.154937 -0.0792883 -0.169658 
-0.00447903 -0.148697 0.140144 
-0.305057 -0.0277501 0.0956359 
-0.17596 0.725937 -0.15711 
-0.600375 0.504395 -0.0751929 
-0.0620883 0.723171 -0.478721 
-0.165173 0.597761 -0.497977 
-0.456057 0.0150086 -0.119114 
-0.128192 -0.636655 0.283098 
-0.239125 -0.695621 0.0618489 
0.284515 -0.384002 -0.472463 
-0.0801384 -0.167347 -0.105847 
-0.493526 0.71818 -0.388563 
-0.13244 -0.823918 0.210185 
0.265999 -0.49766 -0.596523 
-0.175138 -0.345542 0.0462777 
-0.351302 0.14302 0.233003 
-0.169603 -0.572811 0.236232 
-0.423283 -0.134125 -0.037303 
0.0617972 -0.896955 0.20763 
0.344686 -0.61091 -0.700972 
-0.329495 -0.960437 -0.0326415 
-0.018207 0.850616 -0.413547 
-0.205461 -0.424731 -0.221428 
-0.00893981 -0.0837894 -0.0502501 
-0.229233 -0.878165 0.0163848 
-0.356543 0.688582 -0.507554 
-0.0364799 -0.532478 0.0384174 
0.0599052 0.350342 -0.20799 
-0.141653 0.940774 -0.345007 
-0.0625975 -0.377729 -0.0517279 
-0.119289 0.468744 0.207316 
0.38002 -0.322252 -0.335019 
0.285703 0.361035 -0.270445 
0.321278 -0.0806409 -0.155106 
-0.230195 0.899348 -0.253455 
-0.206642 0.300266 0.364829 
0.200002 0.282816 -0.162328 
-0.508787 0.648872 -0.0759637 
-0.44245 0.454277 0.0878518 
0.182921 0.133256 -0.365697 
0.0185319 0.787761 -0.259263 
-0.380343 0.197232 -0.441522 
-0.294921 -0.19648 0.0461202 
-0.265892 0.602366 0.133594 
-0.0187987 -0.790934 0.235484 
-0.149 -0.246957 0.145492 
-0.207457 -0.0419351 -0.233572 
0.24327 0.261743 -0.355999 
0.166796 -0.0695574 -0.0998927 
-0.578756 0.223797 -0.500413 
-0.242479 0.933025 -0.0436105 
-0.368305 0.238635 0.145848 
-0.386258 0.858261 -0.105925 
-0.228958 -0.539875 0.039042 
0.00762469 0.717263 -0.312671 
-0.383871 0.91832 -0.250858 
-0.612588 0.120686 0.139666 
-0.0748697 0.284964 -0.296022 
-0.149726 -0.378742 -0.0835822 
-0.322462 0.429494 0.192207 
0.138345 0.57957 -0.114558 
-0.0649002 0.177524 -0.234354 
-0.621525 0.197804 -0.0548029 
-0.337539 0.807588 -0.385699 
-0.301971 0.616493 -0.445222 
-0.106257 0.719712 -0.201359 
0.028649 -0.21698 0.0262409 
-0.439213 -0.0963551 -0.118602 
-0.0471993 0.176031 0.191448 
-0.482826 0.141691 -0.0400624 
-0.441397 0.285234 -0.537253 
-0.402781 -0.839716 0.0383813 
0.0238855 0.404326 -0.278907 
-0.187533 -0.412411 0.102476 
-0.234615 0.367987 0.307505 
0.0129851 -0.32823 0.141328 
-0.0830792 0.57813 0.0659853 
-0.417238 0.0879187 -0.206945 
0.0336426 0.0590333 -0.13756 
-0.065028 -0.240714 -0.0776782 
-0.448998 -0.00558517 0.013553 
-0.134712 0.122408 0.233964 
-0.386882 0.224645 -0.00939618 
-0.432038 0.739047 -0.0704317 
-0.192161 0.218011 -0.356764 
-0.0571793 -0.477438 0.221128 
-0.19527 -0.951599 -0.0931742 
0.263037 0.42188 -0.0267032 
-0.094727 0.00143852 0.174991 
-0.0159136 -0.0427941 0.132478 
-0.0270581 0.773669 -0.377732 
-0.53212 0.762075 -0.159238 
-0.276517 0.812096 -0.455265 
-0.138876 -0.413369 -0.00255094 
-0.0171718 -0.605684 0.224287 
-0.529174 0.0348957 -0.0935082 
-0.154573 0.386911 0.251557 
0.125174 0.420528 -0.178934 
-0.403374 0.0649586 0.0821284 
-0.285821 0.195969 0.201571 
-0.299538 0.329822 -0.446546 
-0.0944128 -0.377331 0.185133 
0.272448 0.267749 -0.284208 
-0.10728 0.367983 0.0487148 
-0.0437493 0.482584 -0.356205 
-0.533467 0.284525 -0.1277 
-0.605095 0.302248 -0.0472258 
0.0395953 0.565284 -0.00970295 
0.394078 -0.207064 -0.225247 
-0.238658 0.754301 -0.522087 
-0.493383 0.485653 0.0311049 
0.179581 0.512471 -0.0751435 
-0.319865 -0.898144 0.112703 
-0.255083 0.19962 0.361737 
-0.512163 0.338341 -0.508922 
-0.501454 0.443773 -0.293881 
-0.240823 0.899405 -0.45545 
-0.10232 0.3505 0.142198 
-0.179538 -0.294175 -0.209492 
-0.265975 0.857555 -0.376577 
0.00717127 0.635891 -0.110828 
-0.370296 -0.0877185 0.0840515 
-0.00882833 0.155186 -0.0148588 
-0.266561 0.141997 -0.530441 
-0.0250377 0.653875 -0.286727 
-0.424537 0.243131 0.234756 
0.262606 0.394855 -0.176638 
-0.31245 -0.29149 -0.217642 
-0.335491 0.280843 0.279517 
-0.533157 0.462443 -0.386961 
-0.470476 0.352375 -0.23587 
-0.241541 -0.158318 0.104889 
-0.368565 0.689081 0.00628693 
0.00437352 0.356596 -0.0446499 
0.0928467 -0.0379566 -0.0836669 
0.00847028 -0.214568 0.107231 
-0.127352 0.610292 0.13836 
-0.392239 0.620738 0.028349 
-0.577754 0.246368 0.11778 
-0.610056 0.431667 -0.063645 
-0.556273 0.416736 -0.165745 
-0.255066 0.278013 0.0972132 
-0.0867648 0.641989 -0.0579886 
-0.0491696 0.104452 0.109768 
-0.250767 0.669731 0.105547 
0.139007 0.242557 -0.370873 
-0.385744 -0.244242 -0.149993 
-0.5072 0.840387 -0.186893 
-0.32171 0.412721 -0.429519 
-0.324496 0.182981 -0.338168 
-0.147707 -0.802268 0.335587 
-0.098947 0.165957 0.136226 
-0.19026 -0.48785 -0.00416873 
0.0703899 0.420202 3.47197e-06 
-0.199908 -0.574232 -0.121695 
-0.26165 0.443107 0.230422 
0.0801972 0.559206 -0.206725 
0.175501 0.241818 -0.298628 
-0.3914 0.743207 -0.460251 
-0.177716 -0.655232 0.144397 
-0.504759 0.153353 -0.146959 
-0.455398 0.258628 -0.0835557 
-0.487264 0.182494 -0.529092 
-0.05741 0.723566 0.0360193 
-0.365472 0.371051 0.194912 
-0.355911 0.733638 -0.366859 
0.0137708 -0.554055 0.106953 
-0.286957 0.92557 -0.3905 
-0.313084 0.908909 -0.270941 
-0.383843 -0.588809 -0.0645153 
-0.360961 -0.369293 -0.0712046 
-0.122824 0.85745 -0.242928 
-0.484081 0.53818 -0.279627 
-0.0933261 0.864589 -0.311464 
0.0458762 -0.299229 0.010003 
-0.407553 0.184881 -0.251024 
-0.666174 0.2329 0.052229 
-0.161736 0.527432 0.20697 
-0.233213 0.0596124 0.187714 
-0.238119 0.627076 -0.486796 
-0.183975 -0.210068 -0.0119423 
-0.23773 -0.334636 -0.00145073 
-0.551477 0.767397 -0.297529 
-0.128862 -0.724677 0.139475 
-0.135595 0.0535736 -0.242063 
0.207532 0.365245 -0.311923 
-0.240601 -0.163666 0.0122211 
-0.139922 0.875589 -0.37279 
-0.44353 0.534128 -0.397651 
-0.0076052 0.858974 -0.254839 
0.032667 -0.136136 0.0145612 
-0.128335 0.202392 0.353766 
0.145359 0.351224 -0.0959766 
-0.455036 0.91471 -0.235391 
-0.606665 0.326699 0.036851 
-0.061453 0.268535 0.0557944 
-0.494049 0.677367 -0.329443 
-0.362949 -0.0177402 -0.24599 
-0.287788 -0.400038 -0.220304 
-0.377146 0.83957 -0.454782 
-0.340217 0.883061 -0.367336 
-0.196211 -0.499002 0.138374 
-0.223015 0.22207 0.183931 
-0.434799 0.0978347 0.0239272 
-0.0879874 -0.862285 0.247456 
-0.494342 0.35237 0.106884 
-0.174823 0.166565 -0.313808 
-0.323019 0.832509 -0.044166 
-0.38933 0.517165 -0.439541 
-0.161645 -0.445456 -0.0593259 
-0.44093 0.108758 0.141327 
-0.0960122 0.501466 0.124661 
-0.530732 0.17796 -0.47582 
-0.159712 -0.280861 -0.0933699 
-0.296189 0.225588 -0.570302 
-0.464255 0.181932 0.0561109 
0.0649539 0.359788 -0.140226 
-0.145926 -0.148724 -0.103044 
-0.329969 -0.810758 -0.0413101 
-0.353612 0.194339 0.0785294 
-0.0745231 0.20853 0.266305 
-0.410528 0.284621 -0.37 
-0.262449 -0.244072 0.0100666 
-0.341017 0.25019 -0.491453 
-0.391116 0.352659 -0.480773 
-0.378259 0.189005 -0.602766 
-0.216853 -0.703741 -0.015989 
-0.195345 -0.293515 0.0942901 
-0.395867 -0.656174 -0.0117653 
-0.00293937 -0.46228 0.0158126 
-0.358268 -0.307158 -0.0463353 
-0.249382 0.970651 -0.225273 
-0.42861 0.444863 -0.490788 
-0.539162 0.0277253 -0.0278321 
-0.264971 -0.751649 0.0873741 
-0.148932 0.264791 0.365132 
-0.178409 -0.476144 -0.186929 
-0.407422 0.579941 -0.340752 
-0.10884 -0.502496 0.0222139 
0.0265218 0.255205 -0.15109 
-0.497042 0.200074 0.205662 
-0.527351 0.238482 0.16034 
-0.0970503 0.15972 0.312786 
-0.266372 -0.964344 -0.0127445 
-0.0698192 -0.304328 -0.0597711 
-0.299103 -0.468804 -0.192879 
-0.648757 0.106479 0.0218844 
-0.255126 -0.000335728 -0.279213 
0.235616 0.35195 -0.033674 
-0.551904 0.0987292 0.108396 
-0.181645 0.53004 -0.425966 
0.0984195 0.477332 -0.204259 
-0.0527387 0.57284 0.00513841 
-0.146263 -0.403316 -0.178548 
-0.101963 0.842769 -0.176425 
-0.124572 0.661155 -0.513874 
-0.241373 0.3589 -0.440611 
0.00788767 0.0399554 -0.0104523 
-0.1671 -0.548337 0.0775787 
-0.429728 0.138457 -0.49442 
0.202141 0.45832 -0.0069878 
-0.215491 -0.907845 -0.0495647 
-0.0665214 -0.617134 0.264997 
-0.145075 -0.263581 -0.0153843 
0.00201239 -0.609447 0.162346 
-0.547435 0.836689 -0.277954 
-0.305419 -0.690306 -0.10475 
-0.355361 0.618215 -0.335008 
-0.101217 -0.0424985 -0.160272 
-0.311385 0.642336 -0.511946 
-0.0634901 -0.688123 0.117055 
-0.601344 0.5212 -0.200698 
-0.022131 -0.263116 0.142514 
-0.026633 0.228993 -0.242968 
-0.0707609 0.664319 0.00202149 
-0.0325024 -0.877585 0.137462 
-0.129518 -0.508516 0.237564 
-0.232691 0.509699 0.212966 
-0.0963385 0.855786 -0.420394 
-0.20324 0.144818 0.21812 
-0.344401 -0.808401 0.123581 
-0.437169 0.228637 -0.420976 
0.0192119 -0.435893 0.146626 
-0.0672181 0.785513 -0.0193793 
-0.0917378 -0.75135 0.301237 
-0.61049 0.414387 -0.129691 
-0.178276 0.289871 0.136977 
-0.184233 -0.185704 -0.220436 
-0.0477952 0.653826 -0.137851 
-0.170651 0.00325303 -0.270014 
-0.369122 -0.532268 0.0158662 
0.157031 0.271877 -0.216332 
-0.503263 0.705191 -0.104876 
-0.288121 0.872228 -0.489196 
-0.600472 0.125848 -0.0617692 
-0.429311 0.142791 0.217697 
-0.24773 -0.0857737 -0.255351 
-0.119988 0.920758 -0.0254985 
-0.29498 0.130636 -0.298435 
-0.457397 0.787393 -0.369324 
-0.029745 0.151126 -0.159452 
-0.323644 0.285505 0.13224 
-0.0693539 0.330528 0.204593 
-0.58761 0.642553 -0.180137 
-0.129025 0.668111 0.113561 
-0.374556 0.109546 -0.537484 
-0.286024 -0.399417 0.0147695 
-0.535443 0.630623 -0.275305 
-0.010828 0.27706 -0.0374126 
-0.197042 0.0538363 -0.580362 
-0.451612 0.221966 -0.561952 
-0.290228 0.231085 0.0752655 
-0.366874 0.526797 0.102647 
-0.124149 0.918419 -0.289268 
0.0322501 0.822364 -0.318136 
-0.505479 0.438359 -0.477334 
-0.189082 -0.578404 -0.0113238 
-0.409927 -0.145998 -0.176255 
-0.489221 0.0586934 0.0386824 
-0.0281964 0.427459 -0.331878 
-0.448501 0.595607 0.00034672 
0.0230251 -0.166404 0.0707296 
-0.35983 -0.373904 -0.133091 
-0.0963003 0.482388 -0.398869 
-0.540346 0.310463 -0.335443 
-0.182332 -0.347459 -0.0413992 
-0.229924 -0.0534482 0.186182 
-0.0692861 0.526879 -0.321603 
-0.246065 0.943661 -0.341884 
-0.431367 0.274387 -0.287115 
-0.394759 -0.18763 -0.0258338 
-0.0514884 0.391741 0.0325956 
0.148957 0.377203 -0.227853 
-0.127214 0.730528 -0.114967 
0.0173976 0.336872 -0.253549 
-0.595047 0.26622 -0.11442 
-0.0714122 -0.139496 0.167305 
0.244005 0.217657 -0.305261 
-0.289133 0.318956 0.291993 
-0.207744 0.111437 -0.289169 
-0.0326214 -0.00555324 -0.0769564 
0.130775 0.381882 -0.0303686 
-0.0761698 -0.830024 0.157691 
-0.220206 0.813097 0.0454959 
-0.677793 0.161931 0.0705146 
0.00597958 0.0141744 0.0831542 
-0.172406 -0.501807 -0.111133 
-0.126176 -0.431318 0.206674 
-0.0273866 0.487305 -0.0124066 
-0.360247 0.305504 -0.401678 
-0.190218 -0.790645 0.242243 
-0.200896 0.414956 -0.4451 
-0.173934 0.949544 -0.0221554 
-0.3534 0.0986187 0.111712 
-0.155056 -0.156006 -0.176115 
-0.13102 0.214028 0.110998 
-0.349866 0.0380609 0.127141 
-0.320733 0.960888 -0.145271 
-0.183535 -0.368356 -0.21699 
-0.385564 -0.711214 -0.035011 
-0.331765 0.61421 -0.390662 
-0.431513 0.163963 -0.00158931 
-0.405683 -0.896965 0.0876973 
-0.250311 -0.821564 0.0132306 
-0.465923 0.0138902 -0.059642 
-0.0534909 0.847171 -0.0936672 
0.0338802 -0.845781 0.222814 
-0.0341467 -0.742649 0.192703 
-0.437296 0.310291 -0.482768 
-0.2712 0.250078 -0.375124 
-0.424602 -0.0666065 -0.176994 
-0.083437 0.0330311 -0.220737 
-0.0398718 0.52643 -0.261703 
0.269532 0.267576 -0.221991 
-0.182369 0.302111 -0.39895 
-0.204055 0.715924 0.113037 
-0.0323284 0.74728 -0.431115 
-0.161653 0.119738 0.171075 
0.176932 0.345869 -0.0423197 
-0.453958 0.861113 -0.159072 
-0.0801346 0.453975 0.0402018 
-0.12362 -0.29832 0.160684 
-0.0291106 0.649519 -0.429679 
-0.433347 0.653965 -0.299876 
0.201494 0.220439 -0.348878 
-0.118833 0.576134 -0.468211 
-0.39122 -0.221688 -0.0774644 
-0.0871451 0.443079 0.164498 
-0.0705528 0.581011 0.127709 
-0.599163 0.360344 -0.0708697 
-0.445195 0.143894 -0.167758 
-0.382057 0.852623 -0.395404 
-0.1709 -0.42581 0.0452456 
-0.328477 -0.128267 0.075587 
-0.25808 -0.625143 0.0693566 
-0.172649 -0.425056 0.167292 
-0.348025 0.67392 -0.352351 
-0.27996 0.808548 0.00235647 
-0.150535 0.906119 -0.421879 
-0.256684 -0.279288 -0.231542 
0.0315298 0.312777 -0.161683 
-0.499556 0.110287 0.140913 
-0.367659 0.0611726 -0.254694 
0.103271 0.592134 -0.159743 
-0.569145 0.381642 -0.400187 
-0.451124 0.254726 -0.171191 
-0.438051 0.167879 0.106346 
-0.366016 0.88663 -0.312417 
-0.224576 0.837379 -0.463029 
-0.0208702 0.675773 -0.341906 
-0.146858 -0.274643 -0.16548 
-0.356914 -0.8963 -0.0124542 
-0.119431 0.368816 -0.378864 
-0.303643 0.273526 -0.432845 
-0.269266 0.106818 -0.610764 
-0.0530332 0.284801 0.145402 
-0.245595 0.964125 -0.103446 
0.092085 0.511088 0.00662278 
0.192559 0.265952 -0.383451 
-0.17419 0.941744 -0.137171 
-0.0146756 0.0346548 -0.114354 
0.262498 0.343172 -0.128015 
-0.322156 0.177853 -0.610448 
0.0364973 -0.422332 0.0291372 
0.0258367 -0.0710851 -0.00624201 
-0.179356 0.848593 -0.248421 
0.062403 -0.869562 0.149676 
-0.068871 0.556006 -0.373425 
-0.166561 -0.608231 0.101214 
-0.434991 0.0441288 -0.163763 
-0.290108 0.879304 -0.0466405 
-0.392829 -0.198478 -0.191491 
-0.275452 -0.564208 0.0619175 
-0.064572 0.766254 -0.0784966 
-0.269496 0.0767974 -0.286774 
-0.486375 0.390874 -0.278722 
-0.0985289 0.905403 -0.217328 
-0.546613 0.0597627 0.0333224 
-0.0867503 0.126178 -0.251809 
-0.117464 0.923868 -0.0931406 
-0.288623 0.561588 -0.428299 
-0.0992676 0.310264 0.0638526 
-0.0093508 -0.893285 0.220019 
-0.58888 0.26602 -0.417559 
-0.19296 -0.60734 0.17645 
-0.391767 0.277808 -0.510581 
-0.0149295 -0.222 -0.0587759 
-0.320772 -0.61603 -0.130537 
-0.232904 0.409267 0.268867 
-0.496629 0.198889 -0.413983 
-0.110844 0.421153 0.241295 
-0.575707 0.373903 0.0354087 
-0.139449 0.828021 -0.492604 
-0.585073 0.602751 -0.111649 
-0.28625 0.765761 -0.494085 
-0.20349 -0.710028 0.234472 
-0.30768 0.611264 0.0970528 
-0.382729 0.234293 0.271284 
-0.31899 0.161469 0.275138 
-0.537939 0.524268 -0.02485 
-0.364505 -0.425 -0.0647884 
-0.058719 0.832714 -0.378986 
-0.248185 0.196841 -0.541532 
-0.0544948 0.669709 -0.229894 
-0.125676 -0.160491 0.161859 
-0.217093 0.870317 -0.317678 
-0.259206 -0.740691 -0.0646346 
-0.00827837 -0.471203 0.194756 
-0.356684 -0.276917 -0.184776 
-0.451262 0.319307 0.170161 
-0.0743585 0.384251 -0.349722 
0.0233391 0.40897 -0.048678 
-0.4814 0.75501 -0.11748 
-0.615098 0.0529103 0.00621317 
-0.461638 0.0664862 -0.0779073 
0.00247076 0.769949 -0.330429 
-0.411684 -0.749884 0.0232901 
-0.233166 -0.468737 0.0259489 
-0.398281 0.768499 -0.356739 
-0.114241 0.688265 -0.0805312 
-0.227784 0.250672 0.378507 
-0.581564 0.62997 -0.234181 
-0.033723 -0.828989 0.280943 
0.126947 0.392865 -0.1278 
-0.180431 0.77415 0.0917165 
-0.142664 0.280824 0.0818986 
-0.347982 -0.661297 0.0789865 
-0.213106 -0.113429 0.161665 
-0.558545 0.466262 -0.192997 
-0.29885 -0.937639 -0.0725326 
-0.281074 0.393658 -0.397344 
-0.165652 0.686296 -0.117772 
-0.381276 0.41027 0.159422 
-0.108808 0.73097 -0.507049 
-0.584227 0.70308 -0.197263 
-0.335071 -0.414985 -0.185341 
-0.157072 0.125966 -0.5803 
0.177805 0.505038 -0.12961 
-0.356719 0.838645 -0.338865 
-0.0225102 -0.331946 -0.0635836 
-0.372947 -0.730107 0.111627 
-0.189823 -0.596769 -0.067639 
-0.0236375 -0.69295 0.23467 
-0.13197 -0.0378233 0.183537 
-0.322449 -0.511898 -0.165044 
-0.241295 -0.173753 -0.252563 
-0.146781 -0.230734 -0.126162 
-0.180027 -0.98149 -0.0490494 
-0.079662 0.645727 0.118985 
-0.224995 0.480161 -0.398435 
-0.178467 -0.28221 0.0233015 
-0.232576 0.214267 0.123426 
-0.557566 0.273394 -0.528246 
-0.083147 0.262546 0.260024 
-0.183843 0.393908 0.296769 
-0.596023 0.517676 -0.127605 
-0.38519 0.942037 -0.202133 
-0.04336 -0.360464 0.178706 
-0.238445 -0.772202 0.0450343 
0.0521417 -0.356278 0.0180732 
-0.129726 -0.101029 -0.122513 
-0.340736 -0.204893 0.0188596 
0.0225021 -0.48747 0.131125 
-0.342912 0.156211 -0.293607 
-0.324747 0.466517 -0.431604 
-0.137188 -0.839691 0.298269 
-0.538945 0.133013 0.177736 
-0.363654 0.741486 -0.513947 
-0.422414 0.13974 -0.225902 
-0.244069 0.313741 0.328701 
-0.387655 0.724479 -0.0293157 
-0.0210131 0.167204 0.0403994 
-0.42635 0.254028 0.0324955 
-0.27594 -0.539036 -0.170111 
-0.298291 0.0986956 -0.546302 
0.144121 0.166667 -0.381247 
-0.172043 0.618303 0.171595 
-0.423713 0.579474 -0.286209 
-0.0768416 0.21449 0.136993 
-0.359046 0.187438 0.178372 
-0.353906 -0.0432056 0.110238 
-0.466532 0.287646 -0.334519 
-0.551857 0.648751 -0.107237 
-0.141173 0.30931 0.337009 
-0.22354 0.165558 0.301274 
-0.120526 -0.586589 0.266843 
-0.504555 0.604635 -0.0468064 
-0.258757 -0.862165 -0.0252646 
0.258958 0.361326 -0.324289 
-0.280239 0.717367 0.0554608 
-0.353913 -0.156717 -0.238903 
-0.43737 0.0450475 0.0273555 
-0.0296593 0.780068 -0.224453 
-0.0740808 0.324286 -0.331419 
-0.211843 0.896724 0.00230633 
-0.191865 0.833392 -0.510802 
-0.461598 0.695448 -0.0677773 
-0.198868 -0.228181 0.103503 
-0.28272 0.132318 0.145834 
0.236791 0.316452 -0.354216 
-0.175886 -0.525276 0.211326 
-0.0325418 0.100324 -0.145762 
-0.316307 -0.07705 0.0758528 
-0.0242186 -0.526106 0.220072 
-0.215891 0.870758 -0.385851 
-0.110767 0.758083 0.0591285 
-0.252251 -0.0831537 0.0729311 
-0.084296 0.514208 0.0750465 
-0.0703996 -0.630495 0.0799858 
-0.203118 0.166833 0.148974 
-0.1084 0.872469 0.00791152 
-0.277901 -0.807702 -0.035592 
-0.0390999 -0.1424 -0.084929 
-0.137273 0.364876 0.0915491 
-0.500225 0.241193 -0.104304 
-0.369937 -0.547606 -0.0998125 
-0.240423 -0.952046 0.0309659 
-0.207436 0.940935 -0.21583 
0.170018 -0.0216708 -0.120559 
-0.385527 -0.635274 0.0383966 
-0.367019 -0.48473 -0.112204 
0.0204104 0.592813 -0.212855 
-0.0200177 -0.432918 -0.023839 
-0.29564 0.7339 -0.534361 
-0.140095 0.773676 -0.149868 
-0.0903778 0.932895 -0.339526 
-0.191296 0.183665 0.343776 
-0.594277 0.582083 -0.215591 
-0.428691 0.288143 0.205304 
0.0210449 -0.0351403 0.0756585 
-0.58129 0.206397 -0.451391 
-0.472195 0.411644 0.0904602 
-0.0494884 0.0536895 -0.184336 
-0.0623419 0.235616 -0.285307 
-0.558914 0.36949 -0.144123 
-0.392689 -0.0554869 -0.226151 
-0.0678635 0.586836 -0.436313 
0.0106549 -0.385852 0.157462 
-0.228352 -0.690499 -0.0785421 
-0.304442 0.151097 -0.485995 
-0.00101258 -0.0159577 -0.0371816 
-0.390837 0.793178 -0.474098 
-0.074811 0.721669 0.0847607 
-0.433216 0.227637 -0.265014 
-0.179307 0.953915 -0.312044 
-0.477143 0.30689 -0.188916 
-0.283804 -0.227187 -0.249014 
-0.178546 0.245593 0.163562 
0.0758082 0.395964 -0.175379 
-0.0923063 -0.251104 0.156735 
-0.215683 -0.00434397 0.192446 
-0.0863338 0.501574 0.179807 
0.00532991 0.486503 -0.227533 
-0.062 -0.58068 0.0555057 
-0.228716 0.282284 0.154352 
-0.532426 0.55146 -0.24971 
-0.127134 -0.684407 0.301838 
-0.149262 0.244692 -0.347999 
-0.242876 0.798885 -0.491616 
0.11189 0.591104 -0.0698991 
-0.375588 0.938301 -0.150685 
-0.362329 -0.585339 0.0498254 
-0.0334257 0.273866 -0.267284 
-0.391285 0.732197 -0.410245 
0.22331 0.202561 -0.392298 
-0.177255 -0.68162 0.286494 
-0.454451 0.19953 -0.141203 
-0.221573 -0.116768 0.0196547 
-0.468415 0.146343 -0.105216 
-0.320785 0.960429 -0.274504 
-0.1989 -0.521858 -0.159867 
-0.0109067 0.0628329 0.0897654 
0.265787 0.370517 -0.224593 
0.154661 0.335989 -0.301057 
-0.338282 -0.913755 0.0680719 
-0.446554 -0.0476747 -0.135464 
-0.00870292 0.200311 -0.0403557 
-0.0530009 -0.772881 0.276802 
-0.024659 0.837964 -0.0380858 
0.36106 -0.658693 -0.704409 
-0.251752 -0.925897 -0.0865828 
-0.319359 -0.252056 -0.00187543 
0.0649248 0.622239 -0.115266 
0.21685 0.47279 -0.127208 
-0.217891 0.258824 -0.371498 
-0.634087 0.261299 -0.037481 
-0.475517 0.145652 0.0229263 
-0.188478 -0.776063 0.290486 
0.0492921 0.238859 -0.234192 
-0.064224 0.874629 -0.197021 
-0.114277 0.772388 -0.200422 
0.017189 -0.231317 -0.0205937 
-0.388684 0.402759 -0.484371 
-0.135334 -0.109523 0.170666 
-0.121379 -0.789633 0.171611 
0.123458 0.243841 -0.323159 
-0.334611 0.189377 -0.460675 
-0.498138 0.480132 -0.259501 
-0.168632 -0.620907 0.254407 
-0.153408 0.572662 0.180379 
-0.134129 0.311027 0.126645 
-0.643105 0.277276 0.0517659 
-0.283952 0.876106 -0.295748 
0.00683691 0.0927538 -0.0242497 
-0.178277 0.0747464 0.189341 
-0.392015 -0.818416 0.104683 
-0.459367 0.894194 -0.280709 
-0.353657 -0.717904 -0.0728158 
-0.169038 0.128384 -0.516196 
-0.453206 0.560235 -0.339484 
-0.523293 0.679963 -0.376806 
-0.439922 -0.0745388 -0.0154998 
-0.32547 0.0941763 -0.277461 
-0.109467 -0.384102 -0.0301006 
-0.0555495 0.791084 -0.437762 
-0.270276 0.18332 -0.375634 
-0.137066 -0.377839 -0.131549 
-0.455216 0.191275 0.242186 
-0.300193 0.827931 -0.411209 
0.241177 0.39403 -0.280871 
-0.502294 0.497892 -0.402584 
-0.0352265 -0.0909519 0.152342 
-0.389377 0.152474 -0.460624 
-0.203354 -0.6584 -0.00148541 
-0.238824 0.52958 -0.417841 
0.0220313 0.442023 -0.0112725 
-0.0364239 0.220126 0.055075 
-0.336478 0.669311 -0.466869 
-0.40977 -0.132154 0.010043 
-0.551047 0.848921 -0.230403 
0.0584246 0.395666 -0.227116 
-0.29197 -0.875954 0.0788034 
-0.256099 -0.582077 -0.153781 
-0.428744 -0.0358317 0.0485791 
0.302139 -0.380197 -0.426794 
-0.565629 0.41825 0.0169185 
-0.360922 -0.597037 -0.109675 
0.0831196 0.0257229 -0.137691 
-0.317238 -0.186561 -0.251859 
-0.107677 -0.274074 -0.0523858 
-0.413918 0.814004 -0.366058 
-0.127121 0.443758 -0.416184 
-0.340128 0.517326 -0.41989 
-0.010224 -0.383815 -0.0501177 
-0.529808 0.452714 -0.434786 
-0.490849 0.886674 -0.206337 
-0.0678408 0.0752266 0.144237 
0.261125 0.353363 -0.0758215 
-0.0186873 0.135668 -0.114684 
-0.65682 0.137981 0.122778 
-0.162477 -0.180856 -0.044261 
-0.523683 0.469077 -0.339783 
-0.277992 0.181872 0.322783 
-0.5121 0.0791334 -0.109531 
-0.373234 0.169601 0.28067 
0.154493 0.466713 -0.166 
0.122203 0.424899 -0.00968428 
0.413428 -0.222637 -0.268601 
-0.200802 0.86009 0.0318757 
-0.571721 0.670074 -0.301497 
-0.407929 0.894688 -0.285214 
-0.549287 0.278932 -0.3808 
-0.309614 0.952792 -0.323284 
-0.537594 0.736709 -0.361225 
-0.426185 0.184797 -0.0443739 
-0.38506 -0.552674 -0.0331714 
-0.169135 0.915707 -0.244421 
0.00334186 -0.105295 0.121767 
-0.575252 0.731506 -0.23705 
-0.324871 0.821001 -0.451353 
-0.170419 0.0861518 -0.273823 
-0.0526013 0.654834 -0.0884372 
-0.341728 0.728334 0.00285071 
-0.0298125 0.274599 0.0121502 
-0.0845651 0.764836 -0.477766 
-0.0433846 0.682419 -0.463514 
-0.151291 0.387339 0.0523337 
-0.29602 0.468575 0.189352 
-0.0987681 0.399241 0.151165 
-0.565384 0.341948 -0.436095 
-0.375279 0.698833 -0.465416 
0.0490559 -0.318826 0.0554276 
-0.307702 0.014995 0.150935 
-0.169748 -0.492162 -0.0585445 
0.155792 0.506649 -0.0301493 
-0.226567 0.0987639 -0.579073 
0.218556 0.484957 -0.0423038 
-0.512896 0.196662 -0.130165 
-0.0809332 0.680362 -0.49445 
-0.429318 -0.131228 -0.083958 
-0.256734 -0.43539 -0.217817 
-0.14633 0.156664 0.146201 
-0.181189 0.741059 -0.519677 
0.318236 -0.606835 -0.662385 
-0.240432 0.79402 -0.54704 
-0.00156421 -0.573153 0.194346 
0.0047757 0.318838 -0.210622 
-0.173096 0.201838 0.138333 
-0.253637 -0.289791 0.005363 
0.0483069 0.739699 -0.318266 
-0.186941 0.161281 -0.58738 
0.226796 0.420907 -0.193616 
-0.0807057 0.889239 -0.0719424 
0.279846 0.318316 -0.242554 
-0.135273 -0.364474 0.166514 
-0.607902 0.229219 -0.0865498 
-0.34752 0.33315 0.239894 
-0.405969 0.480596 0.10026 
-0.34954 0.884354 -0.0937693 
-0.121302 0.365672 0.284793 
-0.0440197 0.869217 -0.296654 
-0.0864978 -0.0129513 -0.193218 
0.00831908 0.444177 -0.260492 
-0.451168 0.103631 -0.0217755 
-0.164651 0.432353 0.250086 
-0.290874 -0.027164 0.140546 
-0.632995 0.0915475 0.0804879 
-0.0717844 0.756974 -0.230571 
-0.266258 0.775557 0.0323245 
-0.378421 0.253122 -0.358044 
-0.0176767 0.634161 -0.171057 
-0.412322 0.819857 -0.102973 
-0.172788 -0.385677 0.140926 
0.0194283 -0.321088 -0.0406882 
-0.0597287 0.837698 -0.442551 
0.301759 0.323826 -0.293095 
-0.0213041 0.63428 -0.362709 
-0.091215 0.220923 0.0882367 
0.282421 -0.523779 -0.632477 
-0.225441 0.966708 -0.282544 
0.00769526 0.0432513 0.0357346 
-0.150479 -0.516899 0.0466973 
-0.576608 0.54053 -0.241413 
-0.536106 0.217659 -0.535076 
-0.5006 0.873799 -0.288064 
0.271737 -0.0922227 -0.152219 
-0.385997 -0.640568 -0.054026 
-0.59079 0.2885 0.0834908 
-0.0306273 -0.79049 0.190931 
0.00984082 0.25153 -0.108275 
-0.114578 0.833398 0.0315522 
-0.178829 -0.409756 -0.0252039 
-0.178572 0.878614 -0.347914 
-0.234123 -0.195035 0.0453073 
-0.0269265 -0.217617 0.13734 
-0.364726 0.192529 -0.31806 
-0.110047 0.273033 -0.323092 
-0.00473929 0.5535 -0.0124269 
-0.281606 -0.325205 -0.228511 
-0.283708 0.944769 -0.241316 
-0.334551 -0.938963 0.00758715 
-0.0933357 0.513677 -0.365464 
-0.330494 0.552037 0.114551 
-0.2053 0.00996932 -0.299264 
-0.104582 0.680645 -0.177442 
-0.0564215 0.8669 -0.348559 
-0.616493 0.30367 -0.099183 
-0.438718 -0.00129364 -0.158202 
-0.227986 0.1626 -0.516952 
-0.255959 -0.845846 0.0515855 
-0.28883 -0.448331 0.0324316 
-0.55011 0.356487 -0.335505 
-0.411458 0.425288 0.128739 
-0.278111 0.0439074 0.170071 
-0.554006 0.793663 -0.195392 
-0.184539 -0.357191 0.0958835 
-0.102442 0.0530001 0.171398 
-0.0698978 0.611551 -0.0116562 
-0.242894 0.854003 -0.424793 
-0.19447 -0.541366 0.171454 
-0.102779 -0.203868 -0.0909125 
-0.07599 0.841492 -0.139113 
-0.599832 0.262891 -0.461482 
-0.183615 -0.53057 -0.0179226 
-0.551108 0.187046 -0.152578 
0.0330615 0.343636 -0.0875771 
-0.580805 0.1727 -0.110082 
-0.372614 0.318427 -0.443245 
-0.211191 0.286601 0.0902826 
-0.0409821 0.313885 -0.286968 
0.246732 0.277757 -0.184276 
-0.28582 0.14589 0.229011 
-0.133171 -0.863762 0.246407 
0.0480143 -0.384871 0.0528134 
-0.141825 0.861849 -0.420087 
-0.042359 -0.726691 0.151275 
-0.190691 -0.810482 0.319606 
-0.333473 0.934049 -0.358137 
0.219894 0.147784 -0.34207 
-0.350493 0.219024 0.0389742 
0.264635 0.4247 -0.142887 
0.147709 0.277153 -0.302118 
-0.398046 0.340027 0.197967 
-0.381042 -0.810663 -0.000194639 
0.0155677 0.620646 -0.0643578 
-0.0368403 -0.652506 0.249069 
-0.0510822 -0.0984656 -0.0827017 
0.0707228 -0.911768 0.162468 
-0.158674 -0.318309 0.00544481 
-0.279336 0.686461 -0.532369 
-0.215619 0.962908 -0.0635376 
-0.261685 0.558168 0.162585 
-0.436746 0.238806 -0.0394359 
-0.503336 0.581782 -0.280708 
-0.0344518 0.585627 -0.231695 
0.261471 -0.418567 -0.494036 
-0.378302 0.137459 0.197789 
-0.0909967 0.545616 0.109571 
-0.146283 -0.199939 0.144653 
-0.335991 0.715054 -0.53771 
-0.266394 -0.670515 -0.113678 
0.0945523 0.00531296 -0.0944656 
-0.197531 0.900322 -0.444871 
-0.500314 0.635705 -0.307055 
-0.408281 0.11143 0.0585658 
-0.527176 0.428984 -0.197081 
0.00519673 0.0567188 -0.0774452 
-0.386633 0.150344 -0.582484 
-0.265078 0.856734 -0.332204 
-0.326027 0.910693 -0.406942 
-0.584068 0.486941 -0.03778 
-0.329303 0.106308 -0.515474 
-0.0330849 -0.0525382 -0.0705003 
0.353729 -0.109176 -0.165003 
-0.50298 0.379861 -0.496429 
-0.191146 0.562665 -0.467426 
-0.167141 -0.716559 0.160247 
-0.478234 0.173629 -0.0717278 
-0.484992 0.297722 -0.128673 
-0.0567104 0.226419 0.22992 
-0.237234 0.636019 0.13585 
-0.378782 -0.240416 -0.196498 
-0.4785 0.155059 0.232093 
-0.319466 0.490493 0.158954 
-0.61039 0.175029 0.135131 
-0.113948 -0.459765 0.00635873 
-0.533672 0.173952 0.193452 
0.27065 0.24796 -0.324219 
-0.0745721 -0.438081 0.211229 
-0.159721 -0.788458 0.206271 
-0.143813 0.333858 -0.390201 
-0.342609 0.927781 -0.238524 
-0.154414 0.409377 -0.420282 
-0.335713 0.22308 -0.589659 
-0.326212 0.771242 -0.010539 
-0.0335613 -0.735746 0.238091 
-0.0213312 -0.667514 0.140159 
-0.39497 0.192479 0.0286527 
-0.0419843 0.879567 -0.389608 
-0.408403 0.276196 -0.325498 
-0.586727 0.137545 0.170906 
-0.245296 -0.126478 0.0744729 
-0.235972 0.674799 -0.505287 
-0.159498 -0.372358 0.0152779 
-0.122599 0.921313 -0.391671 
-0.193197 0.33905 0.349451 
-0.333369 0.371229 -0.421647 
-0.180468 -0.101434 -0.201573 
-0.451265 0.0584116 -0.122203 
-0.516413 0.377161 -0.307438 
-0.228931 0.143219 -0.614207 
-0.094327 0.138983 0.170577 
0.273189 0.438313 -0.0942014 
-0.423272 0.496744 -0.458047 
-0.395562 0.270591 0.0767512 
-0.273611 0.944205 -0.0765225 
0.00117535 0.449662 -0.303196 
0.392351 -0.166318 -0.209762 
-0.349422 -0.348018 -0.0339051 
-0.308881 0.828344 -0.360252 
-0.258194 0.603847 -0.455862 
-0.0981493 0.305395 0.150553 
-0.554117 0.327276 -0.134525 
-0.0383134 0.16938 -0.198058 
0.271912 0.341317 -0.360785 
-0.222905 -0.657137 0.0496321 
0.00810337 -0.884379 0.122616 
-0.12298 0.204267 0.152622 
-0.57833 0.0922042 -0.0854558 
-0.105687 0.208913 0.314989 
-0.185047 0.86544 -0.418209 
-0.479489 0.394775 -0.206159 
-0.12829 0.904794 -0.177299 
-0.375838 0.254099 -0.465901 
0.398444 -0.294536 -0.307236 
-0.581059 0.0260704 -0.0571703 
-0.139342 0.708551 -0.172473 
-0.376772 -0.253684 -0.102849 
-0.082532 -0.123373 -0.0989782 
0.143067 -0.0320167 -0.0883407 
-0.370607 -0.497336 -0.00958559 
-0.178144 -0.274422 0.129306 
0.291847 0.285544 -0.321376 
-0.354237 0.668734 -0.284589 
0.0330221 -0.233408 0.0659185 
-0.26292 -0.891993 0.0512355 
-0.28776 0.46429 -0.409565 
-0.343663 -0.773562 -0.0585173 
-0.485728 0.0943146 0.00612973 
-0.625737 0.101586 -0.0142072 
-0.31294 0.249702 0.314635 
-0.48704 0.302345 0.153229 
-0.405981 0.653494 -0.00140953 
-0.243045 -0.0388548 -0.257589 
-0.476007 0.638357 -0.044398 
-0.460405 0.532325 0.0286035 
-0.204333 -0.170252 -0.0274727 
-0.480128 0.103636 -0.0893048 
-0.353112 -0.319049 -0.176901 
-0.0690947 0.855054 0.00790022 
-0.39126 0.893174 -0.130489 
-0.365846 -0.439838 -0.116937 
-0.366183 -0.898033 0.104508 
-0.308927 0.20623 0.343681 
0.0124317 0.31221 -0.0455092 
0.14874 0.558145 -0.150288 
-0.41412 0.569639 0.0415197 
-0.155796 0.50075 -0.408385 
-0.14 0.545323 -0.441693 
-0.295503 -0.644637 0.0824842 
-0.437267 0.316589 -0.29146 
-0.413156 0.12201 0.171116 
-0.455367 0.222688 0.0464042 
0.0256909 0.74927 -0.276582 
-0.348535 -0.856079 -0.0244273 
-0.107001 0.290494 0.289263 
-0.202381 0.541934 0.210751 
-0.502008 0.805559 -0.162624 
-0.0885062 0.472952 0.0870407 
-0.443475 0.26704 -0.403265 
-0.0946042 -0.865687 0.200237 
-0.340483 0.934565 -0.11802 
-0.00359128 0.166196 -0.0673103 
0.371745 -0.33018 -0.376147 
0.0972401 0.552504 -0.0108057 
-0.299313 -0.52898 0.0590788 
-0.293025 0.415009 0.223818 
-0.584349 0.638777 -0.134296 
-0.59543 0.399267 -0.166493 
-0.151248 0.648522 0.145695 
-0.0282671 0.69397 -0.300408 
-0.511326 0.448132 0.0397764 
0.196284 0.25757 -0.204639 
0.0140093 -0.265845 0.120397 
-0.408489 -0.738435 0.0640184 
-0.41341 0.232352 -0.577781 
0.0365435 -0.352088 0.10629 
-0.0424528 -0.653564 0.101948 
-0.062169 0.426776 -0.360493 
0.0982577 0.448217 0.0163335 
-0.442148 -0.0867157 -0.0588782 
0.0824151 0.586652 -0.0376412 
-0.043881 -0.173781 0.143461 
0.168259 0.319993 -0.113064 
-0.347375 0.848328 -0.420596 
0.195226 -0.0663136 -0.131003 
-0.566067 0.754055 -0.183108 
-0.0441851 0.217076 0.18184 
-0.00577548 0.816074 -0.239451 
-0.0726498 0.743658 0.00212117 
-0.334376 0.246228 -0.55434 
-0.399345 0.652411 -0.273463 
-0.0648664 0.0334987 0.151774 
-0.223666 -0.385951 -0.231743 
0.172286 0.246997 -0.256921 
-0.0745995 -0.0349904 0.168456 
-0.305563 0.211205 -0.363061 
-0.471523 0.328214 -0.504418 
0.171035 0.540996 -0.104884 
-0.232077 -0.983709 -0.0604935 
-0.408072 0.215826 0.116473 
-0.00797669 -0.567358 0.0736119 
-0.147777 0.716055 -0.524085 
-0.257849 0.165098 0.137741 
-0.181701 0.261965 0.391123 
0.15698 0.283971 -0.1762 
-0.131759 0.871496 -0.32721 
-0.526082 0.300948 -0.530106 
-0.209209 0.873752 -0.476979 
-0.215032 -0.149524 0.13986 
-0.458213 -0.0157177 -0.0908389 
-0.093304 0.12093 0.228373 
-0.655769 0.20996 -0.00264433 
-0.347839 0.241996 0.292957 
-0.295603 0.559741 0.136223 
-0.394429 0.150493 0.239364 
-0.355233 0.410453 -0.460552 
-0.321994 -0.0879135 -0.259983 
-0.0891231 0.0891104 -0.232712 
-0.394769 -0.879393 0.048648 
-0.234382 -0.738605 0.0205734 
-0.354542 0.65588 0.0357931 
-0.0975107 0.370621 0.244926 
-0.325402 -0.845465 0.122367 
-0.398889 -0.691771 0.0126945 
-0.193559 -0.649303 0.185851 
0.0062043 -0.0667358 0.106345 
-0.472266 0.83125 -0.342658 
-0.154584 -0.765187 0.318015 
-0.198565 -0.237777 -0.0393281 
-0.450131 0.356704 -0.271898 
-0.100542 0.361144 0.19475 
-0.158519 -0.336683 -0.19384 
-0.176078 -0.133034 0.166523 
-0.0354262 -0.916486 0.151812 
-0.370559 0.252126 0.0171093 
-0.480981 0.279932 -0.548581 
-0.134313 -0.610811 0.0752096 
-0.281471 0.962605 -0.131919 
-0.0236417 0.617414 -0.266952 
-0.191078 -0.615923 -0.0308511 
-0.377174 0.130342 0.0784699 
-0.19622 0.931639 -0.176593 
-0.116811 0.816869 -0.205211 
-0.00385902 0.248225 -0.0663417 
-0.125618 0.91395 -0.248101 
0.0203836 -0.192364 -0.00603145 
-0.431995 0.925116 -0.202602 
-0.0334856 0.872385 -0.225462 
-0.0044375 0.752878 -0.248451 
-0.0668758 0.141761 0.107272 
-0.0503059 -0.498348 0.0196016 
0.219829 0.421611 -4.72814e-05 
-0.053922 0.461042 0.00532459 
-0.343118 0.583091 -0.365951 
-0.402962 0.539416 -0.407572 
0.244461 0.385208 -0.0109515 
-0.59804 0.565095 -0.122318 
0.000781715 -0.123455 -0.0446671 
-0.357677 0.825638 -0.065391 
-0.0678737 0.351422 0.0384045 
0.0377045 -0.42912 0.0697132 
-0.212849 -0.318866 -0.227497 
0.177927 0.404522 -0.217678 
-0.579473 0.733749 -0.311265 
-0.581374 0.534745 -0.167475 
-0.334064 0.219046 0.170497 
0.252945 0.215747 -0.36718 
-0.126381 0.795949 0.0607788 
-0.0735919 0.642612 -0.185662 
-0.0505915 -0.191888 -0.0915684 
-0.406723 0.612717 -0.266565 
-0.224053 0.185475 0.202274 
0.0999879 0.518245 -0.203972 
-0.0751552 -0.547156 0.0360953 
-0.443315 0.231491 -0.118236 
-0.419415 0.189689 -0.58033 
0.276913 0.394066 -0.0599807 
-0.37827 -0.118335 0.0581581 
-0.163435 -0.319461 -0.0804425 
-0.322054 0.674298 -0.535055 
-0.242007 -0.125899 -0.250302 
-0.0511533 0.139032 0.208265 
-0.239215 0.715499 -0.50547 
-0.578984 0.0413015 -0.00884886 
0.258423 0.315629 -0.159098 
-0.211295 0.793139 -0.518491 
-0.0152251 -0.650062 0.212053 
-0.344045 0.218191 -0.344471 
-0.47515 0.209242 -0.102076 
-0.273495 -0.696297 0.0835423 
-0.31284 0.563351 -0.395724 
-0.133352 0.621946 -0.5052 
-0.474285 0.331466 -0.156748 
-0.360296 0.928189 -0.287595 
-0.243831 0.940317 -0.198053 
0.0538604 0.523854 0.00269011 
-0.553839 0.428248 -0.38046 
-0.212088 0.320983 -0.418938 
-0.242732 0.0712834 -0.60402 
-0.308062 -0.74436 0.119831 
-0.151711 0.679193 -0.544565 
-0.25526 0.886998 -0.0249936 
0.276851 -0.469162 -0.569958 
-0.182614 -0.26618 -0.0632616 
-0.277524 0.210189 0.115845 
-0.301259 0.0892299 -0.585402 
-0.0292671 0.733516 -0.311312 
-0.218179 0.187965 -0.363587 
-0.513755 0.470189 -0.223691 
-0.310828 -0.252552 -0.227924 
-0.235304 0.130715 -0.553226 
-0.101148 0.862804 -0.351899 
-0.210547 0.097095 0.178394 
-0.416709 0.0238547 0.082611 
-0.425001 0.34564 -0.501243 
0.111952 -0.0260942 -0.118448 
-0.0810162 -0.721553 0.130813 
0.00306804 -0.834703 0.255946 
-0.227498 -0.242454 -0.00959913 
0.141629 0.385294 -0.188659 
-0.471127 0.741414 -0.364813 
-0.18662 -0.459036 0.151342 
-0.587814 0.459165 -0.131014 
-0.304588 -0.155549 0.0586842 
-0.412852 -0.167169 -0.0737809 
0.030238 -0.100333 0.0321621 
-0.346114 -0.503705 0.0317263 
-0.369037 -0.290018 -0.0836833 
0.0127238 0.846354 -0.292914 
-0.0884857 -0.347384 -0.0508982 
-0.200091 -0.232972 -0.224575 
-0.161836 0.837872 -0.214237 
-0.175694 0.145776 0.27158 
-0.211079 0.212092 -0.397285 
-0.460394 -0.0197315 -0.0218834 
-0.38874 0.260106 0.11454 
-0.381679 0.189069 -0.282212 
-0.350267 -0.875941 0.143148 
0.0366907 -0.255732 0.0299617 
-0.208222 -0.989165 -0.0931003 
-0.348208 -0.76957 0.116101 
-0.525582 0.432062 -0.323184 
-0.32562 -0.0076446 -0.25491 
-0.242679 0.24225 0.0853183 
-0.454372 0.137335 -0.0673537 
-0.226781 0.181157 -0.585456 
-0.394168 0.0184024 -0.1999 
-0.271226 0.304769 -0.434628 
-0.140527 0.333322 0.0613404 
0.0527553 0.377295 -0.0944164 
-0.420283 -0.10855 -0.168652 
-0.0355053 0.116485 0.0746234 
-0.165581 -0.821572 0.240683 
-0.00314563 0.132126 0.0167763 
-0.627772 0.070673 0.0392007 
-0.0641993 -0.414133 -0.0364798 
-0.573742 0.632121 -0.28456 
-0.335518 -0.286997 -0.0102976 
0.0425434 -0.846326 0.18438 
-0.399053 0.306727 -0.474037 
-0.284726 0.168815 -0.342011 
-0.452066 0.50106 0.053132 
-0.411493 -0.845234 0.0763499 
-0.488974 0.506832 -0.302835 
-0.574799 0.324834 0.0648855 
0.0641559 0.331934 -0.172233 
0.0601825 -0.0164835 -0.0799782 
-0.246957 0.149309 0.22462 
-0.326807 -0.127034 -0.257997 
-0.113826 -0.788482 0.321456 
-0.141962 0.953788 -0.300158 
0.0184398 -0.142963 0.101788 
-0.101992 0.492053 0.0365955 
-0.580122 0.49388 -0.218983 
-0.246548 0.111931 -0.294169 
-0.0500428 0.804356 0.0137606 
