ply
format ascii 1.0
comment Created by CloudCompare v2.10.2 (Zephyrus)
comment Created 2022/8/26 17:16
obj_info Generated by CloudCompare!
element vertex 1530
property float x
property float y
property float z
end_header
0.1871 0.1495 0.1051 
-0.2482 -0.9562 -0.1561 
-0.003765 -0.3909 -0.9064 
-0.1975 0.8196 0.5047 
-0.2989 -0.03832 0.5847 
-0.4698 0.3577 0.05055 
0.1993 -0.5255 0.116 
0.3407 -0.1966 -0.4157 
0.2063 0.7796 0.07075 
-0.2482 -0.199 0.0404 
0.2397 0.473 0.5496 
0.2888 -0.03941 0.5806 
0.1843 -0.9791 0.004205 
-0.3071 0.4 0.4744 
-0.219 0.7787 0.07255 
-0.2312 -0.6341 0.118 
0.3356 0.3656 -0.2236 
-0.1947 0.201 -0.1994 
0.03536 -0.2196 0.3172 
0.3935 0.4609 0.1955 
-0.002539 0.4628 0.00932 
0.1968 0.833 0.4597 
-0.008907 0.1347 0.4197 
-0.2249 0.1286 0.1474 
0.05503 -0.2585 -0.5947 
0.1482 -0.2064 0.003335 
-0.06923 -0.4387 -0.07469 
-0.008457 0.9225 0.2414 
-0.1292 0.5988 0.313 
0.03583 -0.7704 0.155 
0.3109 0.2123 0.4329 
0.1574 0.5882 0.296 
-0.02978 0.3791 0.5617 
-0.2087 -0.928 0.1211 
0.01198 0.6504 0.5383 
0.3137 -0.06465 -0.1575 
-0.216 -0.11 0.2936 
-0.02764 -0.002774 -0.002668 
0.2475 -0.09022 0.2285 
-0.2652 0.5168 0.104 
-0.2909 0.1487 0.3971 
0.3978 0.2695 0.02213 
-0.1142 -0.3738 0.1651 
0.02243 -0.0342 0.6022 
0.1545 0.2307 -0.1558 
-0.3037 0.3305 0.2498 
-0.1503 -0.7799 -0.04581 
-0.009406 0.2332 0.007673 
0.1443 0.1636 0.5874 
0.006047 0.6975 -0.000692 
-0.2177 0.5986 0.542 
-0.1551 0.158 0.5884 
0.2099 0.4187 0.0763 
0.1165 -0.6752 -0.02732 
0.1804 -0.3209 0.1876 
-0.2152 0.8065 0.2887 
0.2431 0.3895 0.3341 
0.1426 -0.4149 -0.06413 
-0.3196 0.2209 -0.0276 
0.304 0.6504 0.4544 
0.1985 0.03059 0.3947 
-0.2568 -0.4459 0.02063 
-0.05388 -0.2049 -0.03309 
-0.000789 -0.5506 0.08351 
-0.1357 -0.02763 0.461 
0.1885 0.8636 0.2534 
0.001619 0.8693 0.4498 
0.02911 -0.9603 0.1288 
-0.3085 0.6849 0.3999 
0.1867 -0.0277 0.04215 
-0.16 0.3412 0.01792 
0.1119 0.5787 0.09827 
-0.2071 -0.6058 -0.07084 
-0.2957 0.5159 0.2822 
-0.1991 -0.02747 0.05159 
-0.006601 -0.1835 0.1361 
0.03215 0.854 0.07659 
0.03293 -0.06885 0.4089 
0.2439 0.2253 0.2534 
-0.1227 0.616 0.08261 
0.07662 -0.8443 0.001154 
0.2069 -0.2239 -0.5193 
0.1373 0.3367 0.5654 
0.02655 -0.3209 -0.7509 
-0.419 0.4474 0.1883 
-0.3103 -0.01755 0.4181 
0.3149 0.3965 -0.06187 
-0.1861 -0.3109 -0.06096 
-0.1226 -0.2431 0.2798 
-0.3115 0.3411 0.08726 
-0.1219 0.8967 0.1278 
0.1478 0.2767 0.01198 
0.02228 -0.3665 0.03844 
-0.1865 0.3368 0.5658 
0.3078 0.1259 0.5701 
0.2618 0.5636 0.1579 
-0.1435 -0.7769 0.1134 
0.067 -0.4432 0.1796 
-0.4369 0.2663 0.1766 
0.08507 0.5044 0.5513 
0.1704 -0.6786 0.1392 
0.3781 -0.09576 -0.3007 
0.3043 0.2488 -0.1144 
-0.2262 0.05458 0.2905 
-0.299 0.3096 -0.1537 
0.117 0.7368 0.3152 
0.3039 0.3097 0.137 
-0.008895 0.2019 0.577 
0.1283 -0.9628 -0.1373 
0.1505 0.1962 0.3703 
0.1628 -0.1287 0.3492 
-0.186 0.2447 0.3438 
-0.3045 0.1623 0.5625 
0.1523 0.7072 0.5335 
0.4477 0.4057 0.0646 
0.3008 0.5045 0.4154 
-0.06591 0.8093 0.3193 
-0.277 -0.7881 0.03204 
0.3025 0.7121 0.3194 
0.3105 0.3653 0.4766 
-0.1866 -0.9572 -0.02186 
0.1748 0.6927 0.1881 
0.2335 0.0617 0.256 
0.2211 -0.3571 0.0447 
-0.06113 0.5251 0.549 
-0.1551 0.01332 0.6016 
-0.1439 0.1929 0.04549 
0.1687 -0.8196 0.109 
0.2446 -0.1852 0.1081 
-0.2366 -0.2031 0.1838 
-0.07257 -0.6617 0.02732 
0.07187 0.09755 0.02301 
-0.1541 0.1184 0.427 
0.1478 -0.04604 0.5014 
0.3099 -0.0525 0.3778 
0.06434 -0.1028 0.04605 
-0.3104 0.5464 0.4182 
0.252 0.257 0.5622 
0.08928 0.9154 0.3408 
0.2614 0.2361 -0.2464 
0.1686 -0.5446 -0.0219 
-0.2568 -0.02036 0.1778 
-0.3625 0.3632 -0.03943 
-0.2407 0.3956 0.3536 
0.01156 -0.3145 0.1742 
-0.09215 -0.1323 0.3835 
-0.1751 0.7025 0.21 
-0.2284 -0.3246 0.1092 
-0.1099 0.7065 0.533 
-0.1241 -0.5502 0.1342 
0.1058 0.09666 0.4727 
0.3234 0.4877 0.07026 
0.07485 -0.5922 0.1821 
-0.1924 0.467 0.5548 
0.2233 0.3454 -0.1468 
-0.145 0.4818 0.07343 
-0.3103 0.2645 0.4495 
0.1059 0.9135 0.163 
0.3135 0.09735 0.3763 
-0.2518 0.2532 0.1586 
0.2089 -0.2142 0.2498 
0.272 0.5049 0.2928 
-0.1896 -0.4726 -0.08399 
0.05334 -0.4907 -0.01933 
0.1896 0.03401 0.5991 
-0.2065 0.5831 0.2007 
0.186 0.5844 0.5442 
-0.05068 0.08698 0.5944 
0.4266 0.3 0.141 
-0.09111 0.913 0.3805 
-0.2586 0.7132 0.5118 
-0.1028 0.7554 0.04132 
0.06411 0.7959 0.5254 
0.3135 0.03626 0.4824 
-0.1286 0.8908 0.2496 
0.2408 -0.007873 -0.06482 
-0.005432 0.5832 0.03749 
0.06847 -0.9729 -0.02779 
-0.1128 0.07525 0.03091 
-0.1134 -0.1066 -0.000737 
-0.2064 0.3891 0.1171 
-0.05847 -0.321 -0.05667 
-0.07827 -0.5498 -0.03498 
0.07869 0.3726 0.007026 
-0.02412 0.003 0.5001 
-0.1969 0.6934 0.3324 
-0.3858 0.2474 0.07298 
0.3237 0.3758 0.252 
0.2594 0.5992 0.3579 
-0.233 0.17 0.2697 
-0.1427 -0.8724 0.04163 
-0.2716 -0.6619 0.004924 
0.1086 0.7247 0.0497 
-0.2458 0.7842 0.4082 
-0.06437 0.813 0.5227 
0.293 0.3117 0.01749 
-0.04022 0.3407 -0.000297 
0.222 0.7984 0.3563 
0.09532 -0.2911 0.2535 
0.246 0.2858 0.3752 
0.02739 -0.727 0.01504 
0.2569 0.7409 0.5158 
-0.3067 0.1998 -0.1643 
-0.1958 -0.02321 0.3684 
0.1377 -0.9425 0.09726 
-0.2578 -0.1055 0.1029 
-0.05761 -0.4571 0.09098 
-0.1971 0.8371 0.1805 
-0.2323 0.5834 0.3454 
-0.3669 0.4577 0.09328 
-0.2401 -0.8721 -0.06362 
-0.2415 -0.5299 0.08804 
0.1309 -0.3076 -0.03258 
0.06789 0.8411 0.2647 
0.006421 -0.6546 0.1135 
-0.145 -0.9572 -0.1218 
0.1146 0.4691 0.06865 
-0.3103 0.05556 0.533 
-0.3349 0.538 0.1844 
0.02725 -0.6198 0.00515 
0.1565 -0.7673 0.01586 
0.001347 -0.2481 0.05095 
0.2008 -0.6229 0.05293 
0.3856 0.3123 -0.08582 
-0.1643 -0.1933 -0.03707 
0.1752 -0.4222 0.1539 
0.05376 0.1075 0.5929 
-0.2629 0.3069 -0.05064 
0.08566 -0.8631 0.1627 
-0.4166 0.2729 -0.03452 
0.1616 0.8242 0.1586 
-0.1335 -0.6713 0.1238 
-0.2537 0.2537 0.5574 
0.2522 -0.04785 0.4806 
0.2282 -0.007645 0.1684 
0.04285 0.03372 0.4164 
-0.3621 0.4108 0.2781 
0.04335 0.2952 0.5691 
-0.1676 -0.4562 0.1349 
0.1695 0.2815 -0.2439 
0.2246 0.2438 0.1189 
0.2117 0.764 0.2588 
-0.1598 0.8372 0.382 
-0.1238 0.2538 0.5727 
0.0177 -0.8418 0.08466 
0.225 0.1248 0.3364 
-0.269 0.5047 0.5015 
0.2724 0.5569 0.5013 
-0.258 -0.5435 -0.01105 
-0.4819 0.3769 0.1561 
0.2311 0.1382 0.1933 
0.2135 -0.04942 0.3192 
-0.2263 -0.8307 0.1138 
0.1355 -0.9021 -0.05982 
-0.03436 -0.2039 0.2498 
-0.1587 -0.2915 0.1931 
-0.2491 -0.04604 0.5014 
0.07419 -0.01101 0.01529 
0.1695 0.5774 0.1852 
-0.2056 0.2861 -0.1461 
0.2843 0.7344 0.4115 
-0.08201 -0.0406 0.5636 
-0.0237 0.8948 0.1434 
-0.09351 0.4201 0.009738 
0.3613 0.4109 0.02107 
-0.2487 -0.3394 0.01652 
-0.08081 0.03572 0.4145 
0.1341 -0.2224 0.3091 
-0.1204 -0.6538 -0.05499 
0.2451 0.3217 0.2475 
0.2 0.6934 0.3324 
0.2116 -0.4707 0.01999 
-0.03629 0.1419 0.009148 
-0.2002 0.06616 0.08006 
0.2306 0.379 0.5604 
0.2645 0.4189 -0.1902 
0.09464 0.8549 0.4394 
0.1912 0.5136 0.1018 
-0.2317 0.2859 0.07216 
0.2279 -0.09231 0.1096 
-0.3014 0.05057 0.3534 
-0.04017 -0.3237 0.09469 
-0.1797 0.2548 -0.01593 
-0.2389 -0.7423 -0.04075 
-0.0808 0.5242 0.01961 
-0.06413 0.8469 0.07307 
-0.106 0.6914 0.3094 
0.1394 0.09968 0.3653 
0.07364 0.6319 0.02838 
-0.1476 0.7432 0.1219 
-0.2491 0.3032 0.3784 
-0.3676 0.2596 -0.1171 
-0.1805 0.1189 0.3383 
0.06438 -0.151 0.3821 
0.1818 0.05381 0.08429 
-0.2034 -0.1136 0.01618 
-0.1133 0.4206 0.5586 
-0.2659 -0.9445 0.0223 
0.3135 0.1287 0.4703 
0.09554 0.5988 0.5424 
0.2413 0.3261 -0.05921 
0.001511 0.9189 0.3658 
-0.3518 0.2971 0.1672 
-0.2695 0.4629 0.4075 
0.1134 -0.02775 0.3996 
-0.2251 -0.7378 0.1208 
-0.1538 -0.1755 0.3317 
-0.06615 0.09773 0.4796 
-0.411 0.3583 0.2228 
0.1336 0.1925 0.0464 
0.3946 0.3711 0.1874 
-0.2742 0.6299 0.4624 
0.2498 0.6522 0.5284 
-0.263 0.2602 -0.2195 
0.1164 -0.01778 0.604 
0.05373 0.4206 0.5586 
0.3323 0.5203 0.2287 
0.454 0.338 0.006733 
-0.2387 0.04438 0.5982 
-0.2573 0.2549 0.2792 
-0.1604 0.5444 0.1355 
0.1267 0.8371 0.3585 
-0.03209 -0.08441 0.03105 
0.2414 -0.2631 0.1603 
-0.01034 -0.1461 0.3332 
0.1053 0.6509 0.3301 
-0.2474 0.3987 0.549 
0.03307 0.778 0.02182 
-0.0861 0.6661 0.02047 
-0.2399 -0.02897 0.2674 
0.1223 -0.7726 0.1686 
-0.09593 -0.745 0.04074 
0.1216 -0.2299 -0.5459 
0.04722 -0.1874 0.008158 
-0.2813 0.7216 0.3256 
0.04642 -0.9167 0.05079 
0.02085 -0.2869 -0.6694 
0.01395 -0.4143 0.1146 
0.05377 -0.04423 0.5221 
0.07519 -0.6972 0.1777 
-0.1976 -0.1968 0.2602 
0.1938 -0.9754 -0.08301 
0.0115 -0.3474 -0.8312 
-0.2692 -0.9554 -0.07298 
0.127 0.8716 0.09133 
-0.1648 -0.3841 -0.09986 
0.1509 -0.1294 0.04023 
-0.1449 -0.8949 -0.06231 
-0.2341 0.746 0.1496 
0.09118 -0.5779 -0.03204 
0.2066 0.3342 0.03222 
0.0761 0.9231 0.2424 
0.05115 -0.4014 -0.0329 
0.2942 0.2745 0.4876 
0.284 -0.2229 -0.4724 
0.3647 0.3771 -0.1356 
0.3728 -0.07289 -0.2198 
0.04202 0.8459 0.3464 
0.2719 0.05474 0.5973 
0.3348 0.2597 -0.03325 
-0.1447 0.5355 0.548 
-0.04023 0.2952 0.5691 
0.1875 0.2006 -0.2303 
0.2261 0.7551 0.1669 
-0.3103 0.2672 0.04332 
-0.05866 -0.2817 0.2317 
0.1582 0.4205 0.5581 
0.1605 -0.8918 0.01904 
0.1054 -0.3612 0.2098 
-0.1022 -0.02718 0.02413 
0.2666 0.3174 -0.2117 
0.2745 -0.09017 -0.08913 
-0.5016 0.3069 0.1166 
0.1468 0.7947 0.5245 
0.012 0.07704 0.4981 
-0.01934 0.7446 0.5302 
-0.07056 -0.5924 0.07156 
0.1763 0.7106 0.1079 
-0.08144 0.8564 0.4393 
-0.2169 -0.03855 0.5868 
0.03637 0.3031 0.01664 
-0.0383 -0.3933 -0.00966 
0.1095 0.2364 0.5741 
0.3628 0.5118 0.1394 
0.05687 0.1806 0.02102 
-0.311 0.1078 0.4703 
-0.1331 0.8088 0.273 
-0.1695 0.6575 0.1422 
0.1394 0.6651 0.256 
0.1974 -0.2803 0.03184 
-0.2461 -0.131 0.2201 
0.2922 0.0141 0.3349 
-0.1979 0.05579 0.386 
-0.3947 0.3831 0.03435 
-0.2713 -0.8748 0.06299 
0.1497 0.4101 0.01665 
0.02042 -0.4982 0.1411 
0.2313 0.1383 0.5924 
0.2235 -0.4281 0.08964 
0.2713 0.4316 0.3979 
-0.2396 0.07383 0.2044 
0.1675 0.03768 -0.000307 
0.06092 -0.2653 -0.004022 
-0.169 -0.09931 0.3574 
0.2313 -0.05519 0.3968 
-0.0866 0.1239 0.3853 
-0.06113 0.6193 0.5412 
-0.1054 0.2606 0.01169 
0.1788 -0.5992 0.1374 
-0.1869 -0.9185 -0.1897 
0.4834 0.3373 0.08338 
0.2118 -0.142 0.2882 
0.2474 -0.1631 0.1973 
0.124 0.7865 0.09689 
-0.1865 0.6712 0.5365 
-0.1174 0.8424 0.1881 
0.006399 -0.4563 0.03411 
0.1902 -0.7169 0.07357 
-0.284 -0.02347 0.3339 
0.2726 0.1806 0.5124 
0.2891 0.39 0.04273 
-0.08234 -0.05933 0.4089 
0.1019 0.01927 0.4805 
-0.221 0.3943 0.0409 
0.1475 -0.4945 0.165 
0.3293 0.2961 -0.171 
0.2034 0.244 0.3255 
0.06757 0.5096 0.02196 
-0.2593 0.2194 0.3964 
-0.2741 0.2016 0.5031 
0.3321 0.454 0.2685 
0.3739 -0.1591 -0.3568 
-0.1311 0.8167 0.0965 
-0.1064 0.3442 0.5647 
0.4053 0.4363 0.1236 
-0.1743 -0.9543 0.05387 
0.2113 -0.03855 0.5868 
-0.4293 0.4182 0.1131 
-0.2894 0.4319 0.3073 
-0.0716 0.9242 0.1985 
0.2528 0.1917 0.3879 
-0.1129 -0.2676 -0.05994 
-0.05941 0.854 0.2579 
0.2656 0.5571 0.2337 
-0.08187 -0.1993 0.3395 
0.2134 0.07674 0.1496 
-0.2716 0.2554 -0.1059 
0.1508 0.6409 0.1237 
0.01199 0.04438 0.5982 
0.4003 0.3708 -0.03984 
-0.2276 -0.2671 0.007757 
0.1165 0.0651 0.5964 
-0.3607 0.4841 0.2603 
-0.2503 0.3264 0.3029 
0.02342 -0.2674 0.2603 
0.02244 0.5459 0.5475 
0.2461 0.2742 0.1892 
0.227 -0.07027 -0.02527 
0.223 -0.3104 0.1054 
0.2778 0.4313 0.4884 
0.001518 0.4735 0.5537 
-0.176 0.08698 0.5944 
-0.2629 0.3269 0.538 
-0.2737 0.355 0.4256 
0.08858 0.1366 0.4125 
0.2157 0.5385 0.3276 
0.235 -0.02004 0.2491 
0.1687 0.494 0.5517 
0.1683 0.3015 -0.1724 
-0.245 -0.2528 0.1158 
-0.1656 0.755 0.5288 
-0.2154 0.4631 0.09465 
-0.2127 0.216 0.08641 
0.1027 -0.9462 0.1621 
0.2185 0.02433 0.3178 
-0.05107 -0.5262 0.03538 
0.3361 0.3179 0.2089 
-0.136 -0.5603 -0.0786 
0.1826 0.2364 0.5745 
0.2627 0.5267 0.09414 
0.2361 0.2741 -0.1377 
-0.2286 0.7765 0.2236 
0.005596 -0.7376 0.0838 
-0.2695 0.1073 0.3207 
-0.176 0.1814 0.3782 
-0.4477 0.2836 0.03028 
0.304 0.5781 0.4112 
0.06422 0.1799 0.5796 
-0.1523 0.7327 0.2719 
0.1647 -0.6225 -0.01491 
-0.07161 0.9212 0.2823 
-0.03449 0.8583 0.3819 
-0.2626 -0.6031 0.06088 
-0.2065 -0.3976 0.119 
0.1294 0.8074 0.281 
-0.2501 0.5139 0.3412 
0.1198 0.8418 0.2151 
0.1882 -0.349 -0.01837 
-0.2365 0.1806 0.199 
-0.2863 0.09669 0.5884 
0.2694 0.327 0.5309 
0.1135 -0.09878 0.394 
-0.1358 0.6859 0.07915 
0.001352 -0.2673 0.1219 
-0.06105 -0.3881 0.1164 
-0.2734 0.7292 0.4437 
0.03103 -0.7977 0.02926 
-0.029 0.0668 0.01118 
0.2787 0.3941 -0.1228 
-0.02484 -0.2362 0.1874 
0.05112 0.874 0.1978 
-0.2782 0.5577 0.2277 
0.2197 0.8179 0.2092 
0.2096 -0.2012 0.04865 
0.3135 -0.02799 0.5121 
0.3362 0.2947 0.07087 
-0.1335 0.8443 0.4889 
-0.2273 0.1913 0.5764 
0.227 0.1515 0.2714 
-0.2586 0.661 0.3568 
-0.234 -0.006097 0.1084 
-0.2284 -0.365 -0.04528 
-0.1961 0.8636 0.2532 
-0.1119 0.871 0.3145 
0.01583 -0.5922 0.1433 
0.15 0.05259 0.4416 
-0.1327 -0.007628 0.3932 
0.09579 -0.9648 0.04151 
-0.09247 0.192 0.5769 
-0.07813 0.1972 0.01711 
0.06074 0.6993 0.5336 
-0.2578 0.5605 0.1602 
-0.04797 -0.4646 -0.007681 
-0.07492 -0.04353 0.4897 
0.2768 0.3377 0.4232 
-0.4572 0.257 0.09313 
-0.03367 -0.2998 0.02216 
-0.3016 0.3467 -0.09112 
-0.1251 0.05609 0.4629 
0.2477 0.3167 0.08429 
-0.00282 -0.1739 0.05284 
-0.2465 -0.8143 -0.02765 
-0.01881 0.06306 0.4235 
0.3142 0.0138 0.4181 
-0.2823 0.3186 0.1445 
-0.05902 -0.3102 0.17 
-0.2936 0.3369 0.002003 
-0.311 0.4251 0.07301 
-0.3937 0.3225 -0.0834 
-0.1192 -0.7213 -0.03354 
0.03157 -0.3859 0.1802 
-0.2577 -0.6861 0.08438 
0.1204 -0.5032 -0.04343 
-0.1799 -0.35 0.1579 
0.05376 0.8998 0.403 
-0.3305 0.5124 0.1178 
-0.2596 -0.05603 0.3869 
-0.1146 -0.8075 0.05502 
0.3137 0.02421 0.5536 
-0.1338 -0.4438 -0.1062 
-0.2101 0.5791 0.267 
0.02789 -0.5468 0.005704 
0.1907 0.2232 0.06102 
-0.07157 0.01328 0.601 
-0.1133 0.0651 0.5964 
0.3105 -0.05009 0.449 
-0.2069 -0.9643 -0.09384 
0.05448 -0.331 -0.00972 
-0.2363 -0.4394 -0.04193 
-0.3108 -0.007159 0.5121 
-0.158 0.02703 0.02992 
0.444 0.2746 0.06899 
-0.1865 -0.04423 0.5221 
-0.07499 0.5751 0.06095 
0.2641 0.4511 0.05775 
0.2641 0.4516 0.3331 
-0.08919 -0.3788 -0.09233 
0.1786 0.7688 0.3151 
-0.04876 0.7322 0.007961 
-0.164 0.421 0.02352 
0.2084 -0.03037 0.104 
-0.000489 -0.6128 0.06401 
-0.3898 0.2318 0.009881 
0.4495 0.3608 0.1444 
-0.1731 -0.896 -0.1303 
0.168 -0.7452 0.1277 
0.02218 -0.3137 0.07945 
0.1734 -0.6955 0.01459 
-0.2471 0.7855 0.4803 
-0.2367 -0.6778 -0.04784 
-0.1566 0.6141 0.256 
0.02441 -0.05213 0.0214 
-0.2072 0.7069 0.1055 
0.08072 -0.7528 -0.01108 
-0.3102 0.463 0.4598 
0.2068 -0.37 0.1323 
0.09384 0.2328 0.01122 
0.2643 0.5363 0.3722 
0.08225 -0.9339 -0.07796 
0.1212 -0.637 0.1789 
0.21 0.3056 0.5683 
0.05917 0.876 0.1308 
0.17 -0.03105 0.4301 
-0.1726 -0.8769 0.1066 
-0.3413 0.2859 0.101 
0.2116 -0.529 0.05309 
0.2785 0.6563 0.3958 
0.141 -0.8838 0.1228 
-0.3007 0.3367 0.482 
0.1755 0.135 0.4047 
-0.1025 -0.1637 -0.02825 
0.209 0.582 0.2495 
-0.08204 0.03002 -0.008219 
-0.1982 -0.5818 0.1335 
0.2689 0.269 -0.05454 
-0.1447 0.5988 0.5424 
-0.1336 0.9105 0.1894 
-0.3103 0.04511 0.4286 
-0.01934 -0.0415 0.5532 
-0.1552 -0.0606 0.01453 
0.2562 0.7811 0.4668 
-0.1771 0.1535 0.08238 
-0.2284 0.7792 0.3443 
0.1202 0.1285 0.04962 
0.05087 0.1272 0.4794 
0.309 0.1503 0.4104 
-0.2657 0.5672 0.5098 
0.2742 0.4941 0.4904 
-0.3714 0.2241 -0.06317 
-0.1049 -0.4559 0.1329 
-0.2737 0.5953 0.4046 
0.2225 0.1976 0.1756 
-0.2557 0.1964 -0.2125 
-0.4277 0.3341 -0.000682 
0.03919 0.1006 0.3989 
0.04391 0.3591 0.5639 
0.1155 0.8815 0.2675 
0.2134 0.8104 0.1265 
-0.3889 0.4982 0.168 
-0.07049 -0.6067 -0.001971 
-0.2607 -0.1531 0.143 
-0.1777 -0.0515 0.4208 
0.08301 0.45 0.01291 
-0.06461 0.4591 0.5546 
0.2251 -0.2513 0.08625 
-0.2385 -0.3777 0.06968 
0.001533 0.524 0.01827 
-0.368 0.3239 0.251 
-0.03788 -0.3822 0.05115 
0.09461 -0.2021 0.352 
0.07236 0.5359 0.07761 
-0.008922 0.9205 0.3031 
-0.2586 0.2761 0.2155 
-0.1777 -0.2494 0.2348 
0.246 0.2743 0.2908 
0.2756 0.3701 -0.02252 
0.1687 0.6406 0.337 
0.145 0.3379 0.01623 
-0.3072 0.195 0.434 
0.2013 -0.2678 0.2209 
0.2854 0.2571 -0.1887 
0.1687 0.09711 0.5936 
-0.103 0.1356 0.03491 
0.1317 -0.04792 0.05991 
0.3637 0.2968 0.1394 
0.06505 -0.8997 -0.02217 
0.1895 0.6505 0.5387 
-0.2996 0.02381 0.5842 
0.2506 -0.09062 0.1674 
-0.09421 -0.4967 -0.06066 
0.1222 -0.5538 0.1802 
0.2604 0.3807 0.2763 
-0.2529 0.3521 0.09999 
0.02094 -0.9008 0.1184 
-0.1222 0.4759 0.01723 
0.2182 0.8042 0.5089 
-0.01907 -0.03794 0.4156 
-0.04968 -0.1525 -0.000282 
0.1875 0.07715 0.3328 
-0.01928 -0.09954 0.4045 
0.03388 0.8569 0.4997 
-0.1338 -0.3331 -0.08906 
-0.2713 -0.7273 0.04203 
-0.1665 0.633 0.1993 
-0.131 0.06329 0.3948 
-0.2587 -0.9468 0.08236 
-0.1537 -0.8424 -0.0336 
-0.2175 -0.05354 0.3177 
0.2628 0.7425 0.353 
0.1878 -0.9353 -0.03846 
0.1344 -0.8313 0.01157 
-0.3584 0.3851 0.08222 
-0.175 0.2942 0.05218 
-0.2587 -0.08032 0.1779 
0.02182 0.04161 -0.008315 
0.1279 0.5133 0.1069 
0.3591 0.2716 -0.1221 
-0.1036 0.3548 0.003233 
0.2201 0.5354 0.5477 
0.08705 0.7828 0.05004 
0.1757 -0.0342 0.3628 
0.3894 0.2701 0.09253 
-0.1029 0.7653 0.5279 
0.2375 0.3275 0.3338 
0.125 -0.4134 0.1897 
0.07246 0.6924 0.01562 
-0.1969 0.6303 0.3379 
0.2278 0.275 -0.1976 
-0.03596 0.6364 0.01022 
-0.2078 -0.2605 0.1818 
0.2941 0.2688 0.4285 
0.3143 0.4107 0.439 
-0.2707 0.2645 0.5019 
-0.2323 0.109 0.2689 
-0.167 0.8523 0.3056 
0.002157 -0.4876 0.08378 
-0.05882 -0.2317 0.2961 
-0.09487 -0.6838 0.08119 
0.06413 -0.5345 0.1779 
-0.1492 0.6724 0.258 
0.1164 0.6608 0.5371 
0.02243 0.9208 0.1768 
-0.186 -0.2483 -0.02923 
0.2 0.2805 0.07008 
-0.1238 -0.04423 0.5221 
-0.2279 0.06973 0.1316 
0.3124 0.5396 0.1286 
-0.4125 0.4135 0.2421 
-0.2186 0.2121 0.3078 
-0.07976 0.02461 0.4819 
-0.1043 0.8519 0.3717 
-0.0734 0.8707 0.1624 
0.1297 0.6827 0.08697 
-0.05919 -0.2655 -0.03764 
-0.2698 -0.9053 -0.02042 
-0.02834 0.4108 0.006993 
-0.2277 0.337 0.03415 
-0.322 0.2542 -0.1777 
0.2835 0.1319 0.3406 
0.1189 0.8465 0.4914 
0.3744 0.3998 0.2334 
0.2108 0.33 -0.2033 
0.1569 0.8418 0.4188 
0.1347 0.004339 0.03547 
0.4159 0.3043 -0.02061 
-0.3529 0.3174 -0.1239 
0.1676 -0.4701 -0.04115 
0.2051 -0.1335 0.05902 
0.07772 0.7992 0.3048 
0.1693 -0.9276 -0.118 
0.0512 0.5829 0.04799 
0.001178 -0.6771 0.06103 
-0.2401 0.01603 0.2319 
0.09556 0.7446 0.5298 
-0.264 -0.1948 0.1039 
-0.102 -0.6255 0.1061 
0.2465 0.6617 0.3427 
-0.1597 0.1004 0.05868 
-0.2787 0.3779 0.2923 
0.1718 0.8425 0.3037 
-0.2282 -0.05065 0.4486 
0.02011 0.1393 0.002006 
0.2238 0.8104 0.415 
-0.1597 0.6009 0.1288 
0.2073 0.1853 0.3127 
0.1415 -0.9796 -0.03325 
-0.4593 0.3131 0.1998 
0.01832 -0.7066 0.1331 
-0.3408 0.3678 0.02484 
0.116 -0.2535 -0.01068 
-0.2492 -0.6 -0.0334 
0.2203 0.1914 0.5763 
-0.3928 0.2535 0.1287 
0.3101 0.2178 0.4924 
-0.1935 0.2365 0.5746 
-0.01939 0.8769 0.08992 
-0.2354 0.504 0.5468 
-0.1542 0.8145 0.1479 
0.02069 -0.8241 0.1476 
0.106 0.4413 0.5563 
0.06421 0.02364 0.6 
0.106 -0.04241 0.5428 
-0.1655 0.3998 0.5599 
-0.2164 -0.4515 0.1066 
0.1078 0.8401 0.1337 
-0.2519 0.3109 -0.1055 
0.1586 0.6322 0.1886 
0.1493 -0.2871 0.2393 
0.0143 0.8447 0.2803 
-0.1866 -0.738 -0.06007 
0.2071 -0.5813 0.09263 
-0.2448 -0.2682 0.06209 
-0.02978 0.1386 0.59 
0.02725 0.4154 0.009757 
0.2695 0.3247 0.1938 
-0.1238 0.6504 0.538 
-0.3007 -0.04905 0.4632 
-0.2137 0.00214 0.3196 
0.1725 0.7658 0.1154 
-0.27 -0.7866 0.0874 
-0.06775 -0.522 0.08846 
-0.176 0.7592 0.3149 
0.1896 0.5888 0.3415 
0.2522 0.002957 0.6022 
-0.291 0.5769 0.461 
0.1646 -0.9451 0.0487 
0.312 0.3447 0.07113 
0.2395 0.5982 0.5386 
0.175 0.1495 0.3401 
-0.1716 -0.7243 0.1254 
0.08488 -0.2471 0.3034 
-0.2806 0.4111 0.4232 
-0.2601 -0.9177 -0.1123 
-0.1683 0.4346 0.09025 
0.127 0.5995 0.3407 
0.03985 0.2292 0.5748 
-0.01919 0.7944 0.0286 
-0.2606 0.6297 0.5158 
-0.2525 -0.3942 0.002134 
-0.209 0.2643 -0.2095 
0.3742 0.4506 0.08055 
-0.1191 0.8184 0.3299 
0.08691 -0.3531 -0.04813 
-0.1882 -0.8013 0.1402 
-0.1037 -0.6017 -0.05077 
0.1741 -0.8015 0.0549 
0.1779 -0.1829 0.3016 
-0.2493 -0.4908 -0.0228 
-0.1646 -0.1424 -0.01725 
-0.03064 -0.2404 0.007403 
-0.1568 -0.9626 -0.1748 
0.3141 0.4733 0.4597 
-0.1061 0.5168 0.08849 
0.01093 -0.3472 0.1208 
0.1092 0.0686 0.3981 
-0.4892 0.3642 0.1009 
0.3137 0.06562 0.4367 
0.2729 0.1683 0.5653 
-0.2685 0.4315 0.5113 
-0.0529 0.8592 0.4853 
0.1899 -0.4745 0.1379 
-0.1182 -0.8089 0.001133 
0.1871 -0.4044 -0.03536 
0.009401 -0.1218 0.04559 
-0.1126 -0.2806 0.2332 
0.1968 -0.5703 0.02168 
-0.2099 0.1733 0.1212 
-0.2091 0.5133 0.1133 
0.08523 -0.9657 0.115 
-0.1334 -0.03918 0.5796 
-0.2336 0.7969 0.1669 
-0.2442 0.1287 0.2107 
0.2244 0.07976 0.595 
-0.005437 0.5916 0.5431 
0.2341 0.06581 0.2025 
-0.09241 0.1331 0.449 
-0.2181 -0.512 -0.06156 
-0.3143 0.2205 -0.1155 
0.1532 0.2359 -0.2093 
0.2592 0.424 0.541 
-0.1955 0.5568 0.3173 
0.2463 0.06955 0.323 
0.02716 0.01762 0.5001 
-0.0464 -0.1679 0.3658 
-0.3101 0.3054 0.2033 
-0.1969 0.5459 0.5478 
0.3138 0.07643 0.5433 
0.2 -0.04513 0.5117 
0.1295 -0.7199 0.1693 
-0.1342 0.4836 0.5526 
-0.1882 -0.8651 -0.07228 
0.3145 0.3973 -0.1618 
0.1269 0.5562 0.5462 
-0.2484 -0.1364 0.06086 
-0.1428 -0.05764 0.379 
0.2025 0.7326 0.2172 
0.02592 0.3531 0.002837 
0.1895 0.7446 0.5301 
-0.0716 0.8869 0.1067 
-0.09247 0.577 0.5444 
0.04545 -0.3295 0.2117 
0.06385 -0.01748 0.4144 
0.2722 0.3668 -0.1879 
0.06579 -0.644 0.1786 
0.1156 0.07631 0.04404 
-0.03908 -0.1842 0.3073 
0.1968 -0.6423 0.1017 
-0.01997 0.8717 0.2279 
0.2778 0.5988 0.47 
0.01176 -0.1862 0.2678 
0.2632 0.3692 0.3834 
0.06635 -0.6856 -0.01561 
0.1383 0.01614 0.385 
0.2743 0.7241 0.4692 
-0.1995 -0.8117 -0.05083 
0.09693 -0.171 0.01016 
0.2 0.2233 0.3735 
-0.2274 0.1717 0.381 
-0.2617 -0.5509 0.0406 
-0.1603 -0.969 -0.07057 
0.0882 0.8704 0.3769 
0.2753 -0.03793 -0.0901 
-0.2192 -0.686 0.1241 
-0.2541 -0.4881 0.05127 
0.2158 0.5577 0.1339 
0.09099 -0.4614 -0.0541 
-0.1888 0.8005 0.1114 
0.1478 0.6934 0.3324 
0.1203 0.9157 0.2157 
0.2523 -0.04377 0.5326 
-0.3008 0.5251 0.4656 
0.001545 0.09711 0.5936 
0.2502 -0.1325 0.1364 
-0.4815 0.2717 0.1493 
-0.07157 0.2538 0.5727 
0.07285 0.04776 0.007885 
0.04329 0.254 0.000884 
-0.2734 0.303 0.4272 
-0.2555 -0.04971 0.1268 
0.02511 0.6358 0.01021 
0.2193 -0.4875 0.08331 
-0.1588 -0.6852 -0.07027 
-0.2785 0.245 -0.04813 
0.1768 -0.07176 0.06924 
-0.2261 0.8279 0.23 
0.3144 0.5567 0.4572 
-0.2573 0.2244 0.2172 
0.06418 0.9209 0.2927 
-0.2399 0.266 0.3266 
-0.2081 -0.1946 -0.009654 
0.1809 0.08389 0.4098 
0.2452 0.3641 0.06406 
0.1578 -0.3672 0.1858 
0.1188 -0.1588 0.3659 
0.3135 0.3167 0.4599 
0.176 0.465 0.09431 
0.06985 -0.6299 -0.02166 
0.141 0.1193 0.443 
-0.2725 0.5126 0.3951 
0.1241 -0.8238 0.1658 
-0.06012 0.2834 0.004019 
-0.1106 0.8457 0.1374 
0.366 0.504 0.1919 
-0.01889 0.8361 0.5179 
-0.1847 -0.6436 0.1373 
0.08383 0.2833 0.01193 
-0.2046 0.7469 0.2578 
0.2202 0.2763 -0.2488 
0.07481 -0.8172 0.1826 
-0.216 0.1495 0.3134 
0.003547 -0.1952 0.1988 
-0.2188 0.086 0.3301 
-0.03327 0.9068 0.4012 
-0.1453 -0.4972 -0.09013 
0.2489 -0.04907 0.1985 
0.3736 0.3672 -0.08649 
0.2348 0.3609 -0.0956 
-0.2157 -0.952 0.02462 
-0.252 -0.07992 0.2281 
0.2086 0.1282 0.1457 
0.1567 -0.8926 0.0755 
0.314 0.7135 0.3763 
0.01458 -0.3894 -0.8593 
-0.2259 -0.8996 -0.1448 
-0.1142 -0.3151 0.1894 
0.309 0.5485 0.1939 
0.4021 0.4215 0.04981 
-0.127 0.3029 0.02869 
-0.3008 0.159 0.5123 
-0.1584 0.03519 0.4313 
0.0501 -0.9061 0.1592 
0.1636 0.2414 -0.02038 
0.2053 0.8076 0.2897 
0.1429 0.7129 0.2793 
0.1609 -0.2757 -0.002467 
-0.3016 0.4727 0.08623 
0.1552 -0.244 0.2689 
0.04197 -0.8697 0.02719 
0.1803 0.2835 -0.1271 
-0.2835 0.2692 0.000921 
-0.2621 0.4521 0.3442 
0.07656 -0.7485 0.1744 
0.2709 0.3793 0.5217 
0.2109 0.1602 0.3799 
-0.2591 0.1386 0.5907 
-0.02908 0.8389 0.3357 
0.2101 0.02355 0.1123 
0.163 -0.08336 0.3703 
-0.224 -0.8806 0.1149 
-0.1644 0.8429 0.4497 
-0.2655 -0.7175 -0.006574 
-0.1853 0.2411 -0.1533 
-0.2513 0.5587 0.2863 
-0.3071 0.6807 0.3377 
-0.1892 -0.1511 0.3065 
-0.1984 0.1106 0.1025 
0.02206 -0.4175 0.007096 
0.07229 0.8248 0.07285 
-0.1868 0.233 0.02824 
-0.05244 -0.3733 -0.05281 
-0.01933 -0.007422 0.6028 
-0.1114 0.8389 0.2401 
0.3282 0.4098 -0.1077 
-0.3365 0.524 0.2437 
0.2327 -0.2159 0.2064 
-0.336 0.2331 0.01829 
-0.09205 -0.6847 -0.01426 
-0.1186 0.5693 0.09837 
0.2939 0.3405 0.2344 
0.2386 0.1082 0.2404 
-0.1998 0.7132 0.1629 
-0.1614 -0.2129 0.2895 
-0.2232 0.7781 0.5227 
0.2038 0.3833 0.03412 
-0.1645 -0.9196 0.02041 
-0.201 -0.5572 -0.07488 
-0.1395 -0.14 0.3625 
0.1607 -0.2435 -0.5195 
-0.1865 0.2849 0.5703 
-0.2684 -0.5922 0.01108 
0.2026 0.008992 -0.03907 
-0.23 -0.1574 0.02056 
0.03228 -0.3075 0.02713 
-0.1855 0.8041 0.3321 
-0.0403 0.494 0.008677 
-0.2065 0.5549 0.1482 
0.09459 -0.4056 -0.06253 
-0.3845 0.4939 0.2187 
-0.1535 0.8058 0.521 
0.2319 -0.06108 0.2755 
0.4437 0.2933 0.02339 
0.1498 0.09727 0.07229 
-0.2594 -0.01777 0.6042 
0.007925 -0.227 0.09558 
-0.3271 0.4722 0.2933 
0.1687 -0.0406 0.5636 
-0.2699 0.02414 0.3276 
0.06508 -0.03918 0.5796 
0.3288 0.4286 0.05242 
0.3752 0.328 0.1747 
0.3647 -0.1558 -0.4058 
0.2073 0.6998 0.5339 
-0.3103 0.6404 0.4182 
-0.1237 0.8471 0.4182 
-0.4048 0.3122 0.2105 
-0.05065 0.9192 0.3553 
-0.3005 0.7263 0.377 
-0.1449 0.09933 0.3665 
-0.2407 -0.5821 0.09788 
0.1007 0.8598 0.3254 
0.2464 -0.2157 0.157 
-0.2685 0.6717 0.4904 
-0.1541 0.8472 0.2207 
-0.06854 0.1078 0.01737 
0.2308 0.5635 0.2901 
0.0503 0.5844 0.5437 
0.2319 0.1753 0.2229 
0.02248 0.8151 0.04927 
0.04906 0.7353 0.009059 
0.1721 0.2587 0.3591 
0.1373 0.2745 0.5709 
0.2694 0.2332 0.4096 
-0.4353 0.3911 0.199 
-0.226 0.7383 0.1955 
0.2108 -0.3846 0.007696 
0.02401 -0.1284 0.3915 
-0.06294 -0.5082 -0.01876 
0.4077 0.4125 0.1689 
-0.2714 0.2361 -0.1798 
0.4498 0.3997 0.1177 
-0.2596 0.1403 0.3529 
0.001288 0.744 0.005417 
-0.2263 -0.1762 0.229 
-0.2077 -0.3973 -0.07264 
0.1824 0.01006 0.3482 
-0.08431 0.8058 0.06221 
0.01018 -0.3597 -0.7859 
-0.1382 0.8629 0.09219 
0.1937 -0.6747 0.05344 
0.1534 0.3041 0.04961 
0.1643 0.05366 0.3725 
-0.06253 -0.3501 0.1458 
0.2115 0.735 0.08905 
-0.2311 0.2984 -0.1863 
0.3664 0.4 -0.02411 
0.2591 0.7717 0.399 
0.3664 0.3267 -0.1259 
0.1061 -0.477 0.1777 
-0.3103 0.1496 0.4495 
0.09555 0.1282 0.5909 
0.001515 0.316 0.5676 
0.02243 0.7653 0.5283 
0.3137 0.1494 0.5121 
0.1695 0.8422 0.2009 
0.02506 -0.01154 -0.00156 
0.1536 0.439 0.05297 
-0.169 0.01487 0.3694 
0.2718 0.2226 0.5325 
0.0249 -0.1625 0.3598 
-0.27 -0.04311 0.5429 
0.1599 0.7121 0.2277 
0.1373 0.6193 0.541 
-0.2551 0.2862 0.1251 
0.2133 0.578 0.2009 
-0.04665 0.7071 0.5335 
0.0576 -0.488 0.1715 
0.1358 -0.3504 -0.04998 
0.07491 0.8694 0.08759 
0.3595 0.3523 -0.1745 
0.1109 0.6526 0.05705 
0.2102 0.0939 0.296 
0.0111 -0.2963 -0.7148 
0.04332 0.9194 0.3449 
0.2328 -0.04533 0.1404 
0.003168 -0.5712 0.04223 
-0.3071 0.4976 0.4219 
-0.4851 0.3164 0.06468 
-0.2064 0.8254 0.4597 
0.3308 -0.08659 -0.1944 
-0.2685 -0.6549 0.05218 
-0.1969 0.1386 0.59 
0.1276 -0.8745 -0.008226 
0.1983 0.2025 0.1015 
0.2742 0.6787 0.4771 
-0.03804 -0.4457 0.04005 
0.03231 0.8656 0.239 
-0.008055 -0.2777 0.1982 
0.2085 -0.3263 0.1467 
-0.2341 0.2154 0.1271 
-0.009238 0.3013 0.01123 
0.2915 0.4425 0.2867 
-0.2137 -0.2927 -0.02909 
0.01201 0.8809 0.4007 
-0.2486 -0.9515 -0.03217 
0.0271 0.5399 0.05287 
0.08511 0.3791 0.5617 
-0.1249 0.04625 -0.009142 
0.146 0.6199 0.2598 
0.1318 0.8598 0.1674 
-0.3103 0.2227 0.4703 
-0.2487 -0.02808 0.2225 
-0.2286 0.2706 -0.1097 
-0.143 -0.8799 -0.009686 
-0.1071 -0.5079 0.131 
-0.3677 0.3659 0.2722 
0.001506 0.2538 0.5732 
0.06397 -0.1081 0.3998 
-0.2177 0.7135 0.5319 
0.02968 -0.4447 0.1535 
0.213 -0.09345 0.3075 
0.2482 0.4931 0.3431 
-0.0658 0.8704 0.2073 
0.02663 -0.644 0.1529 
0.02933 -0.2277 0.01935 
0.2194 0.7541 0.3288 
-0.4918 0.3269 0.1713 
-0.06053 -0.5599 0.006516 
-0.3049 0.1387 0.3535 
0.2454 0.2801 0.1363 
-0.3103 0.1078 0.3972 
-0.2824 0.3797 0.0796 
0.1232 0.1489 0.3861 
0.07469 0.3275 0.01491 
0.3615 0.2654 -0.07736 
0.1069 -0.0375 0.4841 
0.05725 -0.9675 0.06501 
0.1964 -0.4444 -0.01652 
0.02247 0.8797 0.1581 
0.109 -0.8008 -0.009947 
0.05701 -0.9492 0.1707 
-0.0921 0.9146 0.3354 
0.2333 0.2062 -0.2276 
-0.03217 0.1013 0.4002 
0.425 0.3852 -0.004961 
0.2176 0.3069 -0.1129 
0.03289 0.1489 0.5891 
-0.2678 -0.8322 0.03172 
0.2939 0.5253 0.2592 
0.178 -0.7704 0.08707 
0.09618 -0.1319 0.0336 
0.1751 -0.9711 -0.1274 
0.01154 -0.3727 0.08388 
-0.1829 0.7567 0.08759 
0.1644 0.831 0.5049 
0.1686 0.3687 0.5626 
-0.1412 0.1467 0.3947 
-0.2587 0.5537 0.366 
0.1589 0.5563 0.1472 
0.0848 -0.2542 -0.5616 
0.01194 -0.03668 0.5082 
0.2813 0.3844 0.4242 
0.1159 -0.3175 0.2239 
-0.2277 0.7829 0.1245 
-0.2051 -0.6546 -0.06923 
0.2308 -0.02618 -0.01949 
-0.0298 0.9226 0.1831 
-0.2599 0.6137 0.3629 
-0.09009 -0.007579 0.4097 
-0.2634 0.3796 0.39 
0.1745 0.01104 0.06027 
-0.3973 0.2787 -0.07671 
-0.0358 0.836 0.2909 
-0.1155 0.9124 0.2861 
-0.2176 0.3687 0.5625 
-0.3228 0.2143 -0.07238 
0.126 -0.09369 0.04886 
0.3895 -0.09404 -0.255 
-0.4075 0.4519 0.1319 
-0.09841 0.6209 0.04587 
0.01134 -0.7998 0.06889 
-0.2046 0.09769 0.3704 
-0.2169 0.2338 0.3736 
0.3135 0.04512 0.3868 
0.1895 0.4517 0.5557 
-0.2626 -0.2309 0.0779 
-0.05068 -0.03772 0.5954 
0.106 0.3056 0.5682 
-0.2074 0.01331 0.6009 
0.02328 -0.5015 0.01119 
-0.1133 -0.007422 0.6028 
0.3034 0.2934 -0.2073 
0.1664 -0.5598 0.153 
0.02815 -0.8836 0.07503 
-0.06102 0.3821 -0.000317 
-0.03885 0.8619 0.4293 
-0.07155 0.4629 0.008675 
-0.3451 0.3504 -0.08502 
0.06422 0.6297 0.5398 
0.1597 -0.8426 0.04818 
0.1317 -0.7412 -0.009526 
-0.07955 0.07917 0.4076 
0.1249 0.888 0.1326 
-0.259 0.2936 0.1743 
-0.176 -0.0342 0.6022 
0.01038 -0.2264 0.2502 
-0.1348 0.7371 0.08037 
0.005988 -0.4263 0.07316 
0.06422 0.9241 0.1897 
0.2823 0.09694 0.5916 
-0.2287 0.4214 0.09272 
-0.07404 -0.09335 0.01313 
-0.2295 0.01236 0.2774 
-0.3212 0.3753 0.2822 
-0.2834 0.2906 -0.1899 
0.2352 -0.01369 0.3321 
0.4599 0.3791 0.0321 
-0.2995 0.5476 0.1577 
-0.0407 0.1323 0.4715 
0.1058 0.8166 0.5204 
0.1265 0.4604 0.02628 
0.388 -0.1277 -0.33 
-0.1736 -0.3921 0.1484 
-0.09215 0.8191 0.2838 
-0.1408 0.6517 0.1057 
0.2523 0.1471 0.3764 
-0.2722 0.2606 0.4173 
0.09639 0.16 0.03124 
0.3027 0.3936 -0.2036 
-0.08163 -0.7042 0.03582 
0.1072 -0.9328 -0.1139 
0.214 0.05227 0.3567 
-0.3103 0.02423 0.3868 
0.3135 -0.006012 0.4724 
-0.01198 0.8806 0.1845 
-0.2346 0.3535 0.3451 
0.1676 0.8252 0.3503 
-0.3087 0.3292 0.04192 
0.3189 -0.2075 -0.4518 
-0.3101 -0.04775 0.387 
0.1247 0.6423 0.2923 
-0.2148 -0.2795 0.1435 
0.05689 -0.1497 0.02988 
0.2676 -0.06104 -0.05435 
-0.2062 -0.5398 0.127 
0.06761 -0.3813 0.204 
0.3295 0.3277 -0.2038 
-0.1202 0.641 0.3112 
0.2186 -0.3107 0.05397 
-0.1575 -0.9225 -0.02206 
-0.1672 0.5041 0.109 
-0.26 -0.7739 -0.02039 
-0.1851 -0.005908 0.4064 
-0.3112 0.003284 0.4703 
0.1478 0.02364 0.6 
-0.07156 0.1282 0.5909 
-0.01935 0.5147 0.5499 
-0.1438 -0.01637 0.02645 
-0.1029 0.5148 0.5504 
-0.07156 0.3894 0.5608 
-0.01636 -0.2254 0.135 
-0.2282 0.04005 0.3339 
-0.2455 -0.3099 0.05158 
0.3039 0.7096 0.4416 
-0.02982 0.7861 0.5263 
-0.2473 -0.4449 0.06252 
-0.2172 -0.9528 0.0731 
0.1582 -0.02752 0.6049 
0.2442 0.234 0.1688 
0.349 0.5064 0.0991 
-0.01934 0.4205 0.5581 
-0.04969 0.5423 0.05003 
-0.04556 0.5969 0.03139 
-0.1229 -0.7083 0.105 
-0.258 0.3164 0.23 
-0.03384 -0.04186 0.5017 
-0.1152 0.09772 0.4647 
0.216 0.7267 0.1365 
-0.2616 -0.8633 -0.02025 
0.3141 0.07903 0.4817 
0.2401 0.3373 0.5611 
-0.1551 0.7137 0.5324 
0.2583 0.3264 0.3806 
-0.3303 0.3141 0.1312 
0.06515 -0.9498 0.008026 
0.02667 0.8213 0.5222 
0.1926 0.1075 0.1106 
0.2543 -0.2145 -0.5019 
0.3773 0.4449 0.2316 
-0.1169 -0.5929 0.1292 
0.1478 0.2119 0.577 
-0.2399 0.546 0.5416 
-0.31 0.3377 0.4405 
0.2687 0.4627 0.5203 
0.1484 0.683 0.1289 
-0.1238 0.3056 0.5682 
0.3051 0.2528 -0.07213 
0.225 -0.3625 0.09468 
-0.2441 -0.7918 0.1206 
-0.4021 0.3513 -0.03012 
0.2206 -0.4355 0.0418 
0.09682 -0.7143 -0.0222 
0.03968 0.4592 0.009545 
0.373 0.3384 0.2157 
-0.2158 -0.1455 0.2705 
0.3573 0.4862 0.2311 
0.2056 -0.289 0.1758 
0.3407 0.2735 0.03451 
-0.1519 0.8595 0.2659 
0.2827 -0.07397 -0.1273 
-0.2287 0.6718 0.5342 
0.2973 0.05573 0.3401 
0.2213 0.7725 0.2051 
0.2774 0.6092 0.4007 
-0.3214 0.358 -0.05088 
-0.1551 0.6199 0.3388 
0.2306 -0.1023 0.2652 
-0.1782 -0.3451 -0.08433 
0.256 0.2625 -0.1024 
0.2185 -0.1722 0.2596 
-0.2046 0.2524 0.06681 
-0.3949 0.4087 0.09072 
0.388 0.4738 0.1155 
-0.2066 -0.9622 -0.1557 
-0.04064 0.06595 0.4897 
0.1268 -0.6226 -0.03294 
-0.06331 0.7858 0.03188 
0.08646 0.0168 0.4059 
0.2993 0.01022 0.5904 
0.2919 0.2645 -0.01979 
0.08082 0.8528 0.2266 
-0.4588 0.3915 0.09171 
-0.0611 0.9102 0.1559 
0.06531 -0.2719 0.2754 
-0.2327 -0.06834 0.2795 
0.2627 -0.05277 0.3693 
-0.3103 0.09735 0.533 
0.106 0.02364 0.6 
0.1269 0.3791 0.5617 
0.02244 -0.0415 0.5532 
-0.2599 0.4718 0.08865 
-0.22 -0.06364 0.05104 
0.0212 0.09766 0.00505 
-0.2666 -0.915 0.05271 
-0.1213 -0.7683 -0.00812 
0.04333 0.5044 0.5508 
0.3138 0.1704 0.4704 
-0.1642 -0.9098 0.08245 
-0.2541 -0.7285 0.09237 
0.01496 -0.7489 0.1261 
0.2479 -0.1741 0.157 
-0.2189 0.8086 0.3879 
0.09468 -0.9055 0.1653 
-0.03014 -0.2827 0.0995 
-0.2512 0.3452 0.2658 
0.2835 0.1811 0.4306 
-0.09507 -0.312 -0.07424 
0.1147 -0.2656 0.28 
0.08008 -0.9754 -0.07886 
-0.05416 0.1395 0.406 
-0.4346 0.3811 0.04563 
0.01414 -0.6681 0.02264 
0.0739 0.8548 0.4889 
0.1555 0.5997 0.1254 
-0.0892 -0.6337 -0.02869 
-0.05031 0.003278 0.4143 
0.1162 0.847 0.3974 
0.1465 0.7556 0.2924 
0.208 0.1826 0.1398 
0.1348 0.8613 0.2981 
0.1783 -0.2454 0.02031 
-0.09534 0.842 0.5048 
0.2158 0.8178 0.2504 
0.2061 0.7179 0.1757 
0.2258 0.01458 0.2698 
0.07617 -0.5397 -0.02699 
0.4611 0.325 0.1273 
0.2426 0.3486 0.2953 
-0.1689 0.5943 0.2136 
-0.2485 0.568 0.1997 
0.4693 0.2967 0.09291 
-0.2587 0.473 0.5328 
0.1546 -0.1677 0.02545 
0.01953 0.6999 0.5341 
0.2279 0.2343 0.2903 
0.1884 -0.4921 -0.01327 
-0.1546 -0.2846 -0.06388 
0.3101 0.3924 -0.02125 
-0.3101 0.7025 0.437 
-0.2738 0.4633 0.4788 
0.04976 0.05074 0.4913 
0.2604 0.2798 -0.2414 
0.2726 0.6324 0.4929 
0.1606 0.5893 0.2234 
0.07477 -0.2144 -0.005667 
-0.165 0.5804 0.3344 
0.1519 0.01173 0.4435 
0.2731 0.4887 0.07123 
0.05498 -0.592 -0.01764 
-0.1889 0.1704 0.3358 
-0.4163 0.3128 -0.04349 
0.4726 0.3252 0.04083 
-0.1076 -0.2177 0.3136 
-0.03719 -0.3405 0.02072 
-0.2222 0.7449 0.1048 
-0.1552 -0.09927 0.001381 
0.2908 -0.02665 0.3371 
-0.1301 0.7745 0.09606 
-0.2805 -0.05247 0.4279 
0.3913 0.2909 -0.05154 
-0.09923 0.8521 0.09762 
0.1773 -0.7529 0.04787 
-0.2258 0.2501 0.1045 
-0.2112 0.1424 0.3579 
-0.1135 -0.7554 0.07589 
-0.1627 0.5889 0.1675 
-0.05882 0.6924 0.005849 
-0.2163 0.2762 0.358 
-0.07899 0.8807 0.4018 
0.06692 0.8615 0.4102 
0.3428 0.4116 0.2558 
-0.3809 0.4493 0.2648 
-0.1353 0.3788 0.01085 
-0.3029 0.2199 -0.1994 
-0.1324 -0.8151 0.1059 
-0.08401 0.7597 0.005726 
0.1373 0.7446 0.5298 
0.04894 -0.2706 -0.6453 
-0.03447 -0.2989 0.06272 
0.06699 0.06606 0.4156 
-0.3388 0.2269 -0.1469 
0.1492 0.7236 0.1348 
-0.1362 0.2346 0.01041 
-0.2584 0.4284 0.3766 
-0.2244 -0.2272 0.01248 
-0.2594 0.2551 -0.1443 
0.09197 0.8556 0.188 
0.1345 -0.05978 0.3874 
-0.1008 -0.09786 0.4024 
-0.3512 0.4253 0.07361 
0.2271 -0.04507 -0.05814 
0.06706 -0.7896 -0.002525 
0.1813 -0.9392 0.007501 
-0.03974 -0.2997 0.1364 
0.2913 0.362 0.01413 
-0.246 0.7346 0.3394 
0.03793 -0.5601 0.1617 
-0.2742 0.3793 0.484 
-0.05267 -0.2493 0.2607 
-0.2139 -0.2126 0.2153 
0.2233 -0.1752 0.07574 
-0.1655 -0.5608 0.1428 
-0.2051 -0.3201 0.1413 
0.2146 0.8219 0.1647 
0.03556 -0.3748 -0.00758 
-0.1266 -0.2062 -0.03901 
0.1081 0.7767 0.3175 
0.2209 -0.04992 0.456 
-0.1433 0.2702 -0.01081 
-0.1995 -0.09897 0.3318 
-0.01734 0.1082 0.4929 
-0.2303 0.1976 0.1625 
-0.1798 -0.9469 0.1014 
0.1989 -0.3171 0.01688 
-0.2046 -0.9536 -0.1955 
-0.1725 -0.8384 0.1164 
-0.3269 0.4316 0.2942 
-0.2056 0.008112 0.0846 
0.08616 0.1088 0.3843 
-0.1891 0.06351 0.3481 
-0.2597 0.3144 -0.1561 
-0.2295 0.008007 0.1731 
-0.1958 0.3677 0.02578 
0.1758 0.2059 0.3414 
0.2645 0.3145 0.1319 
-0.2585 -0.122 0.1674 
0.2304 0.005248 0.219 
0.035 -0.9277 0.09301 
0.2303 0.04342 0.1626 
-0.2909 -0.04604 0.5014 
0.05101 -0.4409 -0.03298 
-0.3102 0.5988 0.4191 
-0.1385 -0.3446 0.1798 
0.175 -0.9205 -0.07266 
-0.3226 0.3799 0.06664 
-0.1841 0.206 0.05676 
-0.05764 0.3514 0.5641 
-0.2599 -0.895 0.09477 
-0.272 0.4939 0.3154 
-0.1865 0.1799 0.5796 
0.2253 0.3035 0.05075 
0.2056 -0.05321 0.002884 
0.1377 -0.03114 0.4606 
-0.2302 -0.1006 0.04169 
0.1262 -0.9267 0.1375 
0.1015 0.9176 0.2812 
0.2417 -0.242 0.1205 
0.2244 0.3631 0.3562 
-0.307 0.4458 0.4248 
-0.1379 0.1365 0.05258 
0.3135 0.6614 0.4181 
